# .PCD v0.7 - Point Cloud Data file format
VERSION 0.7
FIELDS x y z
SIZE 4 4 4
TYPE F F F
COUNT 1 1 1
WIDTH 1507
HEIGHT 1
VIEWPOINT 0 0 0 1 0 0 0
POINTS 1507
DATA ascii
16.668058 -6.8428674 -0.73510975
23.587412 -9.6835232 0.14740512
33.916637 -13.92406 1.9165467
14.476374 -5.9371943 -1.00192
19.514265 -8.0033836 -0.36748791
29.859648 -12.246336 0.93594718
33.931126 -13.91617 2.7730193
11.178221 -4.5799651 -1.056993
16.668818 -6.8295846 -0.73505539
23.594059 -9.6670103 0.1472314
34.002701 -13.917801 1.9202096
14.479535 -5.9266853 -1.0019591
19.520025 -7.9898314 -0.36763451
29.893608 -12.223709 0.93628055
33.991676 -13.899438 2.7763994
11.175862 -4.5698895 -1.0565509
11.56902 -4.7306547 -0.51010573
23.607895 -9.6438189 0.14699484
34.029213 -13.900924 1.9209076
14.483735 -5.9166021 -1.0020705
19.530151 -7.9701076 -0.36788282
29.893463 -12.199298 0.93578947
34.076038 -13.906176 2.7822444
11.175299 -4.5560055 -1.0561703
11.574903 -4.7189183 -0.51027465
23.622328 -9.630477 0.14686944
34.118031 -13.90942 1.9251213
14.489083 -5.9010892 -1.0021729
19.534695 -7.9560575 -0.36800715
29.917168 -12.184613 0.93604511
34.115505 -13.880623 2.7838995
11.17382 -4.546308 -1.0558134
11.585096 -4.7136445 -0.51066405
23.641159 -9.6092939 0.14666356
34.180298 -13.893081 1.9274349
11.563497 -4.7001524 -0.79967588
19.540495 -7.9425197 -0.36815539
29.924528 -12.151093 0.93554682
34.205864 -13.889563 2.7902279
11.172153 -4.5365415 -1.0554394
11.590853 -4.7018452 -0.5108285
23.650614 -9.5939035 0.14650695
34.252357 -13.894515 1.9306983
11.561396 -4.6851969 -0.79931897
19.545757 -7.9208193 -0.36831346
29.938946 -12.132606 0.93551236
34.26593 -13.886094 2.7940822
11.173641 -4.5235214 -1.0552564
16.700687 -6.7610831 -0.7359423
23.655243 -9.5765553 0.14632043
34.334713 -13.886069 1.93414
11.560864 -4.6755877 -0.79914176
19.550737 -7.906951 -0.36844686
29.90114 -12.080846 0.93360537
34.325443 -13.868381 2.7973678
11.172857 -4.5141277 -1.0549675
16.706955 -6.7500486 -0.73613369
23.662832 -9.5507994 0.14604467
34.392159 -13.881373 1.936576
11.56676 -4.6685786 -0.79940927
19.556395 -7.8854203 -0.36861327
29.93293 -12.069388 0.9341144
35.623146 -14.363766 2.9020429
11.172246 -4.5048103 -1.0546956
16.715384 -6.7331009 -0.73637867
23.657537 -9.5294609 0.14579703
35.532429 -14.312769 1.9999577
11.582231 -4.6607242 -0.80026925
19.560335 -7.8711376 -0.36872771
29.941355 -12.048491 0.93389422
35.630535 -14.323385 2.9010251
11.171639 -4.4909706 -1.0543184
16.724348 -6.723146 -0.73668993
23.65991 -9.5112238 0.14559676
35.678822 -14.32833 2.0069568
19.564228 -7.8568387 -0.36884153
29.958893 -12.019111 0.93371737
35.585342 -14.276367 2.8962693
11.171479 -4.4818492 -1.0540907
16.733257 -6.7063804 -0.73695755
23.662462 -9.4834776 0.14529029
11.638253 -4.6643972 -0.8038615
19.569832 -7.8353 -0.36900821
29.969421 -11.999051 0.93356353
35.618099 -14.26065 2.8978603
11.171857 -4.4684243 -1.0538089
16.742424 -6.6964922 -0.73727864
23.664616 -9.4651718 0.14508885
35.735828 -14.278845 2.0080988
11.611052 -4.639389 -0.80177552
19.574968 -7.8215046 -0.36914608
29.952778 -11.968131 0.93256396
35.602112 -14.211007 2.8949509
11.172112 -4.4594812 -1.0536222
16.749519 -6.68577 -0.73750889
23.672413 -9.4395466 0.14481471
35.656155 -14.218152 2.0028002
11.60704 -4.6283917 -0.80136114
19.580641 -7.8000026 -0.369315
29.992001 -11.947397 0.93306369
35.593044 -14.178588 2.8931439
11.171384 -4.4501514 -1.0533434
11.621932 -4.624929 -0.51164788
23.67849 -9.4228163 0.14463735
35.692181 -14.203646 2.0040026
11.607961 -4.614676 -0.80121958
19.58626 -7.7864022 -0.36946261
29.98238 -11.919318 0.93228436
35.57695 -14.129026 2.8902352
11.173568 -4.43747 -1.0532355
11.62501 -4.6167555 -0.51172715
23.68292 -9.4054327 0.14444993
35.695091 -14.161522 2.0029364
11.608855 -4.605649 -0.8011452
19.590528 -7.7722645 -0.36958495
29.996489 -11.888565 0.93200374
35.568897 -14.097089 2.8885167
11.173183 -4.4282889 -1.0529908
11.636692 -4.6072927 -0.51215756
23.693956 -9.3811026 0.14419556
35.718037 -14.141773 2.0034053
11.618297 -4.6000094 -0.80166101
19.599052 -7.7519016 -0.369809
30.008018 -11.868901 0.93188298
35.57386 -14.070327 2.887857
11.173752 -4.4149804 -1.0527328
11.638087 -4.5984492 -0.51216352
23.702717 -9.3654346 0.14403445
35.730671 -14.10351 2.0028882
11.622992 -4.5877943 -0.80178219
19.604166 -7.7381015 -0.36994797
30.037041 -11.856136 0.93230546
35.580448 -14.029862 2.8868012
11.17487 -4.4064054 -1.0526314
11.648517 -4.5931711 -0.51256728
23.712078 -9.3404369 0.14376976
35.766651 -14.088861 2.0040886
14.540031 -5.7274714 -1.0028385
19.614218 -7.7183385 -0.3702018
30.021652 -11.813741 0.93111116
35.587536 -14.003956 2.8863177
11.173953 -4.3970327 -1.052339
16.724979 -6.5746608 -0.7358278
23.72172 -9.3251095 0.14361387
14.548625 -5.713264 -1.0031798
19.620363 -7.7049422 -0.37036085
30.021721 -11.78957 0.93063623
35.596779 -13.978902 2.8860104
11.17615 -4.384387 -1.0522379
16.736683 -6.5657749 -0.73626447
23.726698 -9.3079472 0.14342973
14.555979 -5.7044263 -1.00352
19.628571 -7.6923537 -0.3705591
30.03406 -11.758128 0.93030393
35.601631 -13.937794 2.8848219
11.176049 -4.3753467 -1.0520239
16.751978 -6.5582848 -0.73685962
23.734797 -9.2824564 0.14315732
35.741035 -13.977983 1.9998078
14.56144 -5.6948423 -1.0037302
19.637667 -7.672205 -0.37079626
30.049906 -11.740144 0.93031871
35.610283 -13.912519 2.8844705
11.177643 -4.3624768 -1.0518683
16.761484 -6.5417714 -0.73716193
23.738871 -9.2649469 0.14296773
35.72467 -13.942836 1.9980824
14.570618 -5.6808472 -1.0041144
19.646217 -7.6597409 -0.37100166
30.056463 -11.718527 0.93004626
35.635204 -13.879259 2.8849125
11.177089 -4.3532715 -1.0516135
16.776407 -6.5341034 -0.73774153
23.745394 -9.2388506 0.14268588
35.728363 -13.901181 1.9970767
14.574792 -5.6707559 -1.0042372
19.652395 -7.6463485 -0.3711625
30.037064 -11.674742 0.9287343
35.631832 -13.849305 2.8835909
11.176927 -4.344224 -1.051396
16.784834 -6.5171504 -0.73799783
23.7502 -9.2216358 0.14250074
35.741344 -13.877511 1.9969954
14.581185 -5.6556697 -1.0044315
19.66148 -7.6261864 -0.37140083
30.094904 -11.673045 0.93004811
35.664936 -13.833519 2.8852222
11.177868 -4.3311214 -1.0511824
16.791777 -6.5063596 -0.73822749
23.755795 -9.2047281 0.14232035
35.761333 -13.842195 1.9969038
14.584215 -5.6451344 -1.0044768
19.667707 -7.6128101 -0.37156326
30.057957 -11.622517 0.92819631
35.666897 -13.791327 2.8838124
11.177434 -4.321981 -1.0509411
16.797003 -6.4949007 -0.73838204
23.764074 -9.1793261 0.14204906
35.773731 -13.818284 1.9967916
14.587309 -5.6346259 -1.0045272
19.676104 -7.5923772 -0.37178949
30.067707 -11.602164 0.92802477
35.668903 -13.763486 2.8829312
11.177876 -4.308702 -1.0506833
16.806082 -6.478189 -0.73866916
23.770041 -9.1625652 0.14187086
35.805733 -13.801926 1.9977739
14.591556 -5.6187129 -1.0045764
19.680485 -7.5782871 -0.37191769
30.062689 -11.576121 0.92739779
35.690414 -13.728864 2.8831074
11.179277 -4.3002801 -1.050616
16.810486 -6.4664106 -0.73878866
23.778566 -9.1372623 0.14160101
14.595431 -5.6085081 -1.0046821
19.686243 -7.5647268 -0.37207213
30.080271 -11.546736 0.92723286
35.703716 -13.705375 2.8831425
11.183324 -4.2928762 -1.0507979
16.819427 -6.4496388 -0.73907137
23.782278 -9.1196384 0.14140938
41.050789 -15.741485 2.2881231
14.599139 -5.5923944 -1.0046965
19.692909 -7.5436311 -0.37226707
30.095442 -11.528459 0.9272294
11.194926 -4.2838845 -1.0515916
16.824104 -6.437963 -0.73920381
23.781527 -9.1003113 0.14119127
41.074924 -15.701422 2.2880933
14.602669 -5.5820589 -1.0047796
19.697294 -7.5295453 -0.3723962
30.124277 -11.515394 0.92764693
11.21452 -4.2824092 -1.0532349
16.827314 -6.4257269 -0.7392723
23.790058 -9.0750275 0.14092155
41.014271 -15.645427 2.2838011
14.604407 -5.5710411 -1.00474
19.70542 -7.5090103 -0.37261966
30.122646 -11.478632 0.92689145
41.196556 -15.698491 3.3225172
11.246954 -4.2858 -1.0560839
16.833223 -6.4077935 -0.73942399
23.783978 -9.0536919 0.1406721
41.073872 -15.635323 2.2862062
14.60975 -5.5555601 -1.0048699
19.710289 -7.4951115 -0.3727586
30.131754 -11.458018 0.92670214
41.226006 -15.660293 3.3231063
11.270887 -4.2814088 -1.0580362
16.835535 -6.3952208 -0.73945415
23.784122 -9.0347414 0.14045963
41.220448 -15.641719 2.2929926
14.612123 -5.5447898 -1.0048755
19.715843 -7.481473 -0.37291074
30.101027 -11.410268 0.92505461
41.241867 -15.633379 3.3231966
11.327172 -4.2937431 -1.0631231
16.841305 -6.3772388 -0.73960119
23.787216 -9.0074234 0.14015803
41.286606 -15.633859 2.2957582
14.615001 -5.5342121 -1.0049162
19.72403 -7.4609594 -0.37313667
30.132547 -11.398164 0.92555517
41.258804 -15.606865 3.3233745
11.37304 -4.2975144 -1.0671328
16.843813 -6.364747 -0.73964107
23.788347 -8.9888678 0.13995156
35.780907 -13.506207 1.988425
14.621216 -5.5190659 -1.0051091
19.728683 -7.44698 -0.37327239
30.165161 -11.386435 0.92608893
41.259304 -15.557685 3.3216383
11.431411 -4.3104529 -1.0724127
16.849525 -6.3534665 -0.73982203
23.797091 -8.9637051 0.13968335
35.780956 -13.477695 1.9876384
14.624146 -5.5085111 -1.0051548
19.736687 -7.4263973 -0.37349585
30.165565 -11.350512 0.92540038
41.258694 -15.524564 3.3204076
11.830404 -4.4514709 -1.1096402
16.856272 -6.3358564 -0.74001431
23.80784 -8.9487801 0.13953337
35.80629 -13.458701 1.9882569
14.629825 -5.4931626 -1.0053128
19.741497 -7.4124784 -0.3736352
30.131817 -11.313805 0.92389899
41.254169 -15.473564 3.3182755
11.880519 -4.4561305 -1.114036
16.861818 -6.3245101 -0.74018908
23.818508 -8.9338169 0.13938279
41.359013 -15.496422 2.2952254
14.632919 -5.4826717 -1.0053712
19.745678 -7.3983235 -0.37376288
30.145851 -11.283069 0.92363101
41.225697 -15.430062 3.3148096
12.002244 -4.4922314 -1.1252458
16.870728 -6.3077073 -0.74047786
23.831255 -8.9101419 0.13913776
41.33041 -15.452808 2.2927313
14.637138 -5.4726024 -1.0055076
19.751764 -7.3770256 -0.37395138
30.154825 -11.262432 0.92344099
12.053888 -4.4971757 -1.1297811
16.872087 -6.2947941 -0.74046987
23.841898 -8.895155 0.13898683
39.806984 -14.835729 2.2069142
14.640222 -5.4562874 -1.0054902
19.75548 -7.3627014 -0.37407088
30.169821 -11.244039 0.92343557
12.46972 -4.6424031 -1.1685455
11.716241 -4.3618875 -0.51414716
23.848858 -8.8693123 0.13870788
39.771824 -14.79101 2.2040958
11.733302 -4.3635764 -0.8057211
19.757244 -7.3476543 -0.37415367
30.194765 -11.217338 0.92350268
39.70895 -14.751851 3.1889067
12.926869 -4.8023243 -1.2111677
11.720797 -4.3496137 -0.5142777
23.855742 -8.8529186 0.13853493
39.773926 -14.760192 2.2033443
11.740196 -4.3521514 -0.80601263
19.762508 -7.3260632 -0.3743279
30.202045 -11.196054 0.9232617
39.752094 -14.736305 3.191247
12.933777 -4.7894831 -1.2114899
16.876568 -6.2495308 -0.74043328
23.85895 -8.8351641 0.13834065
39.795418 -14.720774 2.2032351
11.75138 -4.3469677 -0.80665964
19.766296 -7.3117762 -0.37444964
30.209368 -11.162799 0.92279094
39.764721 -14.693641 3.1905773
12.936891 -4.7803683 -1.2115659
16.878067 -6.23669 -0.74043339
23.868521 -8.8102961 0.13807683
39.842407 -14.706542 2.2049706
11.755504 -4.3391657 -0.80682236
19.7724 -7.290504 -0.3746407
30.237492 -11.149205 0.92318732
39.707672 -14.641062 3.1848817
12.943228 -4.7673116 -1.2118369
16.888683 -6.22052 -0.74080151
23.877306 -8.7946033 0.13791479
39.864868 -14.683219 2.2053487
14.65347 -5.3914275 -1.0054964
19.777702 -7.2767782 -0.37479174
30.252419 -11.130724 0.92318064
50.454468 -18.543638 4.0447364
12.946472 -4.7582445 -1.2119267
16.893785 -6.2090092 -0.74096084
23.885294 -8.7691498 0.1376417
39.958683 -14.67027 2.2092407
14.654406 -5.3801594 -1.0054121
19.782776 -7.2629681 -0.37493873
30.237123 -11.08916 0.92202175
50.471268 -18.509827 4.0446682
12.95066 -4.7495236 -1.2121053
16.904083 -6.192708 -0.74131644
23.894087 -8.7534542 0.1374796
40.148636 -14.708209 2.2188749
14.660425 -5.364954 -1.0056034
19.791576 -7.2426896 -0.37518224
30.259165 -11.073283 0.92223275
50.467194 -18.468372 4.0429292
12.956162 -4.736155 -1.2123016
16.908947 -6.1811047 -0.74146628
23.898102 -8.7360067 0.13728997
40.272903 -14.705919 2.2244399
14.662402 -5.354074 -1.0055921
19.796406 -7.2287893 -0.37532523
30.280107 -11.045005 0.92218
50.488083 -18.416088 4.0424881
12.959641 -4.7271729 -1.2124153
16.913509 -6.1693902 -0.74160337
23.905552 -8.7103615 0.13701372
40.359047 -14.70545 2.2283289
14.665251 -5.3435135 -1.0056411
19.806126 -7.2088413 -0.37558717
30.26195 -11.01445 0.92116731
50.46867 -18.369095 4.0395274
12.964353 -4.7135148 -1.21254
16.918413 -6.1511126 -0.74172473
23.910526 -8.6932697 0.13682961
40.395164 -14.686673 2.2294548
14.668374 -5.3272581 -1.0056368
19.811188 -7.1950245 -0.37573522
30.280647 -10.997321 0.92127711
40.755585 -14.785507 3.2603896
12.967559 -4.7044334 -1.21263
16.920717 -6.1385789 -0.74176383
23.918663 -8.6678801 0.1365573
37.900837 -13.734879 2.0905707
14.671679 -5.3168678 -1.0057185
19.818407 -7.1819897 -0.37592447
30.262417 -10.954844 0.92003483
40.790092 -14.765809 3.2620184
12.969369 -4.6948462 -1.21259
16.924229 -6.1198053 -0.74182582
23.923277 -8.6506624 0.13637111
37.963184 -13.727496 2.0931969
14.673732 -5.3060246 -1.0057149
19.825327 -7.1610184 -0.3761346
30.284937 -10.939088 0.92026144
40.816898 -14.743291 3.263032
12.972948 -4.6807823 -1.2126123
16.92618 -6.107152 -0.74185055
23.930964 -8.6345558 0.13620242
37.9958 -13.694315 2.0937774
14.678793 -5.2904801 -1.0058464
19.831347 -7.1475458 -0.37630177
30.264471 -10.907817 0.91918236
40.948307 -14.742299 3.2718403
12.975363 -4.6714187 -1.2126305
16.928562 -6.0946579 -0.7418946
23.938635 -8.6090021 0.13592738
14.681706 -5.2799516 -1.0059032
19.837236 -7.1262054 -0.37649336
30.324944 -10.893744 0.92033297
41.201698 -14.801041 3.2909505
12.976965 -4.6617641 -1.2125735
16.934156 -6.0766478 -0.74205011
23.942249 -8.5914297 0.13573551
35.377773 -12.694949 1.9480021
14.685713 -5.2640314 -1.0059645
19.841469 -7.1120901 -0.37662721
30.306635 -10.863284 0.91932094
38.310486 -13.717142 3.0584371
12.980802 -4.6478004 -1.2126232
16.937654 -6.064559 -0.74214417
23.949419 -8.5751352 0.13556378
35.419716 -12.668149 1.9491827
14.68824 -5.2533679 -1.0059962
19.845434 -7.0978804 -0.37675622
30.304766 -10.826816 0.91858071
38.265636 -13.670952 3.0538065
12.982826 -4.6383018 -1.2126075
16.943291 -6.0465665 -0.74230313
23.954489 -8.5486593 0.13527399
35.410339 -12.636919 1.9479159
14.689694 -5.2423239 -1.0059551
19.852079 -7.076818 -0.3769635
30.323357 -10.809591 0.91868901
38.250427 -13.635412 3.0515447
12.986491 -4.6242819 -1.2126436
16.947538 -6.0347481 -0.74243116
23.959789 -8.5316982 0.13509166
38.67149 -13.755091 2.1260834
14.694064 -5.2265425 -1.0060443
19.858007 -7.0633092 -0.37713042
30.299448 -10.777233 0.91751039
38.227825 -13.582253 3.0481741
12.988388 -4.6147428 -1.2126176
16.950382 -6.0224295 -0.74249804
23.968048 -8.5063677 0.1348199
38.624298 -13.707936 2.122673
14.696821 -5.2159677 -1.0060937
19.866383 -7.042861 -0.37737152
30.342745 -10.756852 0.91814005
38.30616 -13.579974 3.0533752
12.991232 -4.6055412 -1.2126807
16.957151 -6.0048428 -0.7427088
23.969158 -8.4879255 0.13461401
38.57375 -13.659682 2.1190817
14.702633 -5.2007008 -1.0062838
19.87225 -7.0293279 -0.37753794
30.333136 -10.729613 0.91739589
38.377132 -13.559913 3.057466
12.994604 -4.5914245 -1.2126931
16.961002 -5.9928842 -0.74282092
23.972206 -8.4701748 0.13441904
38.55991 -13.609356 2.1171041
14.706584 -5.1905494 -1.0064163
19.878181 -7.0158157 -0.37770587
30.353754 -10.701157 0.91733992
38.42794 -13.547694 3.0604703
12.997395 -4.5822062 -1.2127528
16.968992 -5.9757261 -0.74308676
23.972334 -8.4419918 0.13410178
38.594254 -13.591184 2.1181791
14.711043 -5.1805768 -1.0065842
19.886581 -6.9953699 -0.37794879
30.353489 -10.677244 0.91687959
38.454494 -13.526881 3.061543
13.001513 -4.568356 -1.2128372
16.972565 -5.9636693 -0.74318779
23.976562 -8.4246721 0.13391353
39.918179 -14.026095 2.1900034
14.717443 -5.1655135 -1.0068172
19.889946 -6.9809537 -0.3780686
30.35652 -10.654501 0.91651934
38.487968 -13.493381 3.0626466
13.004471 -4.5591984 -1.2129142
16.979298 -5.9527206 -0.74342752
23.979107 -8.3973646 0.13360998
40.753578 -14.271701 2.2345557
14.721518 -5.1554027 -1.0069602
19.894924 -6.967104 -0.37821928
30.405817 -10.636053 0.91732997
38.541447 -13.481923 3.0658624
13.007055 -4.5499101 -1.2129569
16.983414 -5.9342003 -0.74352604
23.985186 -8.3807001 0.13343206
35.882977 -12.537926 1.9667469
14.727008 -5.1400185 -1.007133
19.901615 -6.9460592 -0.37843108
30.382275 -10.604017 0.91616887
42.584118 -14.862703 3.3862982
13.011506 -4.53618 -1.2130759
11.792498 -4.1111989 -0.51623261
23.992174 -8.3643513 0.13325918
35.896698 -12.500554 1.9663764
14.731544 -5.1300669 -1.0073087
19.905388 -6.9317899 -0.3785595
30.376776 -10.566425 0.91532803
42.594727 -14.816385 3.3854246
13.013523 -4.5266957 -1.2130673
11.795362 -4.1029639 -0.51632082
24.005829 -8.3409281 0.13301733
41.42403 -14.392957 2.268295
11.816312 -4.105628 -0.80786467
19.91326 -6.9111576 -0.3787947
30.385258 -10.545602 0.91513413
42.574722 -14.776116 3.3826931
13.015965 -4.5122709 -1.2130014
16.989956 -5.8899426 -0.74362546
24.011389 -8.3240776 0.1328364
41.388714 -14.34831 2.2655013
11.821775 -4.0936575 -0.80807805
19.919109 -6.8976111 -0.37896329
30.413095 -10.53148 0.91552329
42.585236 -14.729816 3.3818195
13.017669 -4.5026841 -1.2129655
16.993357 -5.8778358 -0.74372196
24.025412 -8.300766 0.13259633
41.327412 -14.278598 2.2608609
11.827094 -4.0862541 -0.80833542
19.923326 -6.8834982 -0.3791011
30.420795 -10.498483 0.91508192
42.588905 -14.697803 3.3809738
13.018116 -4.4926658 -1.2128131
17.00016 -5.8602638 -0.7439419
24.02677 -8.2824631 0.13239215
41.263256 -14.224194 2.2564974
14.736795 -5.0742865 -1.0070047
19.93041 -6.8625913 -0.37932265
30.410402 -10.471143 0.91432136
42.57045 -14.658183 3.3783743
13.021403 -4.4785457 -1.2128296
17.005976 -5.848989 -0.74414515
24.030109 -8.2648497 0.13219891
41.263763 -14.17604 2.2552471
14.739885 -5.0638428 -1.0070851
19.933752 -6.8481798 -0.37944442
30.441303 -10.446138 0.91457897
42.58139 -14.61209 3.3775444
13.023156 -4.4689837 -1.2128006
17.008316 -5.8365178 -0.74419665
24.035538 -8.2385788 0.13191141
41.336769 -14.168863 2.2583854
14.743078 -5.0534348 -1.0071729
19.938913 -6.8266168 -0.37963036
30.425322 -10.416917 0.91365206
42.571701 -14.575553 3.3756466
13.027375 -4.4551883 -1.2129064
17.014633 -5.8187766 -0.74439758
24.038437 -8.2208242 0.13171582
41.332272 -14.135084 2.2572892
14.748057 -5.037889 -1.0073189
19.941677 -6.8120127 -0.3797417
30.445894 -10.40022 0.91382337
42.594719 -14.533618 3.3757806
13.029627 -4.4458003 -1.2129254
17.014696 -5.8055339 -0.74435061
24.042582 -8.2034979 0.13152707
41.313839 -14.080475 2.2550104
14.750605 -5.0272622 -1.007364
19.945759 -6.7978616 -0.37987846
30.463432 -10.3706 0.91368061
42.608196 -14.505014 3.3757234
13.03202 -4.4364619 -1.2129583
17.019392 -5.7872458 -0.74448222
24.051086 -8.1782913 0.13125643
41.348606 -14.060111 2.2560606
14.754547 -5.0171113 -1.0075051
19.952642 -6.7768941 -0.38009846
30.457916 -10.344999 0.91306984
42.622208 -14.476588 3.37571
13.036241 -4.4226708 -1.2130677
17.020576 -5.7743955 -0.74448538
24.051464 -8.1596918 0.13104713
41.341717 -14.009486 2.2544165
14.75801 -5.0010538 -1.0075502
19.95681 -6.762774 -0.38023749
30.455706 -10.320539 0.91255885
42.600262 -14.419394 3.3722911
13.038175 -4.4131789 -1.2130594
17.025116 -5.7626848 -0.74463576
24.060221 -8.1345768 0.13077784
41.37035 -13.986999 2.2551334
14.762009 -4.990922 -1.0076964
19.964581 -6.7421074 -0.3804754
30.487038 -10.295577 0.91283089
42.610855 -14.389832 3.3720114
13.040728 -4.4038987 -1.2131096
17.030468 -5.744626 -0.7447983
24.056345 -8.1145563 0.13054556
41.36792 -13.954003 2.254158
14.765924 -4.9750218 -1.0077746
19.96891 -6.7280426 -0.38061813
30.464808 -10.264381 0.91172177
42.657539 -14.355849 3.3740304
13.04473 -4.3900371 -1.213202
17.036245 -5.7333307 -0.74500382
24.062227 -8.0978346 0.1303663
41.459114 -13.936425 2.2578623
14.769719 -4.9648213 -1.0079083
19.973192 -6.7139621 -0.38076019
30.471106 -10.230985 0.91124588
42.797779 -14.369791 3.3840046
13.047784 -4.3809266 -1.2133002
17.041344 -5.7151871 -0.74515694
24.066399 -8.0711918 0.13007222
41.37949 -13.877515 2.2526863
14.772362 -4.9542341 -1.0079639
19.981283 -6.6934009 -0.38100559
30.487133 -10.212688 0.91128272
42.93248 -14.381675 3.3935361
13.051282 -4.3668985 -1.2133483
17.044918 -5.7031507 -0.74526715
24.076363 -8.0558395 0.12991495
41.388474 -13.832328 2.2519176
14.777087 -4.9386101 -1.0081004
19.986948 -6.6797833 -0.38117468
30.479818 -10.186577 0.91062224
43.107174 -14.390004 3.4056618
13.054503 -4.3578448 -1.2134638
17.047632 -5.6908278 -0.74534023
24.085453 -8.0308447 0.12964734
41.444763 -13.818983 2.2541425
14.779748 -4.928031 -1.0081586
19.994743 -6.6591196 -0.38141543
30.516596 -10.163354 0.91105849
43.167122 -14.37653 3.4092777
13.056354 -4.3483334 -1.2134525
17.05139 -5.6722431 -0.74543691
24.100544 -8.0171852 0.12951742
41.401112 -13.772319 2.2509327
14.783818 -4.9121914 -1.0082523
19.999458 -6.6451826 -0.38156706
30.49312 -10.131892 0.90991694
13.059188 -4.3340907 -1.2134423
17.053452 -5.659709 -0.74548256
24.10684 -8.0005913 0.12934014
41.487225 -13.752728 2.2543609
14.785868 -4.901413 -1.0082703
20.004536 -6.6313653 -0.38172585
30.5154 -10.103823 0.90992123
46.044327 -15.24554 3.6335361
13.060577 -4.3244319 -1.2133898
17.055578 -5.6471992 -0.7455315
24.122772 -7.9778452 0.12910885
41.499573 -13.724672 2.2541976
14.788613 -4.8908668 -1.0083362
20.009167 -6.609652 -0.38190755
30.494644 -10.073333 0.90886301
46.056057 -15.213753 3.6332736
13.062536 -4.309907 -1.2133008
17.059399 -5.6286483 -0.74563324
24.127781 -7.9608192 0.12892453
41.409687 -13.662883 2.2484841
14.792975 -4.8751302 -1.0084529
20.01433 -6.5958643 -0.38206866
30.562866 -10.072209 0.91045642
46.02993 -15.151679 3.6294355
13.063501 -4.3001146 -1.2132107
17.061985 -5.6162963 -0.74570334
24.139444 -7.9366465 0.12867014
41.552998 -13.661933 2.2550173
14.795999 -4.8646774 -1.0085391
20.018482 -6.5817428 -0.3822107
30.552816 -10.03344 0.90949857
46.063206 -15.126999 3.6308765
13.063978 -4.2901654 -1.2130759
17.067589 -5.5983381 -0.74588466
24.144201 -7.9195366 0.12848441
38.018513 -12.470448 2.0624459
14.801001 -4.8491526 -1.0087014
20.025322 -6.5607624 -0.38243592
30.552586 -10.009739 0.90905333
50.584686 -16.572721 3.9859798
13.06712 -4.2760429 -1.2131003
17.069857 -5.5858855 -0.74594188
24.150579 -7.9029589 0.12830727
38.050446 -12.436804 2.0630395
14.80382 -4.8386345 -1.0087751
20.028782 -6.5464153 -0.38256538
30.570297 -9.9801054 0.90892351
50.622047 -16.526281 3.9869821
13.067874 -4.266192 -1.212993
17.075974 -5.5746922 -0.74616772
24.15992 -7.8780155 0.1280403
38.035801 -12.402634 2.0614884
14.807372 -4.8283567 -1.0088995
20.035509 -6.5254002 -0.38278946
30.548304 -9.9493303 0.90783268
50.613083 -16.484262 3.9849844
13.071397 -4.2522001 -1.2130553
17.080568 -5.5564065 -0.74630719
24.166195 -7.8614011 0.12786253
14.812633 -4.8129168 -1.0090822
20.036753 -6.5103364 -0.38287717
30.580317 -9.9361486 0.90834713
13.072245 -4.2423859 -1.2129583
17.080095 -5.5430694 -0.74624622
24.174044 -7.8359699 0.12758753
39.018757 -12.647855 2.1128263
14.815685 -4.8024759 -1.0091738
20.039953 -6.4959121 -0.38300255
30.590157 -9.9039421 0.90798491
38.716877 -12.535069 3.0458832
13.074972 -4.2331843 -1.2130367
24.179436 -7.8190675 0.12740502
39.052536 -12.628683 2.1138821
14.821326 -4.7871585 -1.0093845
20.044027 -6.4740453 -0.38317722
30.606544 -9.8856459 0.9080354
38.690609 -12.496728 3.042836
13.077979 -4.2190318 -1.2130544
17.029633 -5.4938583 -0.74394286
24.184443 -7.8020415 0.12722045
39.02076 -12.573286 2.1110055
14.826105 -4.7772741 -1.009595
20.048243 -6.4599533 -0.38332263
30.587339 -9.8440819 0.90681314
38.7076 -12.457468 3.0427032
13.080134 -4.2096477 -1.2130812
17.074736 -5.4952502 -0.74587435
24.189255 -7.7756357 0.1269294
39.070095 -12.559083 2.1129041
11.915402 -3.8302062 -0.81129652
20.052202 -6.4380589 -0.38349608
30.628786 -9.8338289 0.90760702
38.724655 -12.433127 3.0430663
13.082951 -4.2004766 -1.2131701
17.082962 -5.4781628 -0.74617642
24.194418 -7.7586637 0.12674564
39.06115 -12.526126 2.1116512
11.915166 -3.8163681 -0.81114352
20.056875 -6.4241171 -0.38365087
30.631187 -9.8110161 0.90724379
38.756607 -12.398632 3.0441132
13.086737 -4.1865802 -1.2132636
17.088747 -5.4668641 -0.74639142
24.19581 -7.7404857 0.12654214
41.585876 -13.287745 2.2469125
11.918379 -3.8082249 -0.81127149
20.058228 -6.4091134 -0.38374242
30.604628 -9.7671843 0.90580702
38.793106 -12.380461 3.0460052
13.088758 -4.1771564 -1.2132802
17.096872 -5.4497337 -0.74669057
24.203756 -7.7150965 0.12626751
41.650352 -13.276307 2.2495794
14.832653 -4.7279997 -1.0095307
20.064142 -6.3878551 -0.38395452
30.620934 -9.7488384 0.90585667
38.797863 -12.35214 3.0454059
13.093596 -4.1635966 -1.2134737
17.103123 -5.4385753 -0.7469269
24.205563 -7.6970611 0.12606622
39.641476 -12.59025 2.1399143
14.835728 -4.7118711 -1.0095726
20.065134 -6.372746 -0.38403976
30.655649 -9.7363253 0.90645075
38.829185 -12.317346 3.0464072
13.095897 -4.154264 -1.2135179
17.107729 -5.4268918 -0.74709189
24.220686 -7.6739511 0.12582885
39.590584 -12.543666 2.1363935
14.839341 -4.7016163 -1.0097076
20.070154 -6.3512106 -0.38423571
30.643501 -9.6971512 0.90544337
38.856182 -12.296059 3.0475552
13.098007 -4.1448708 -1.213545
17.111273 -5.4083009 -0.74719322
24.219893 -7.655098 0.12561405
39.476593 -12.47723 2.1294727
14.842796 -4.6856132 -1.0097774
20.073984 -6.3370085 -0.3843759
30.645802 -9.6743469 0.9050799
38.879097 -12.258534 3.0479
13.102253 -4.131125 -1.2136872
17.113998 -5.3960233 -0.74727708
24.232496 -7.6404781 0.1254687
39.079315 -12.306666 2.1069016
14.846243 -4.6753063 -1.0099025
20.07732 -6.3226514 -0.38450691
30.689447 -9.6527967 0.90572172
38.937721 -12.247138 3.051528
13.103901 -4.1215892 -1.2136731
17.118402 -5.3777103 -0.74741763
24.235306 -7.6134706 0.12516727
39.106892 -12.285348 2.1076288
14.84853 -4.6646342 -1.0099491
20.084709 -6.3018675 -0.38474953
30.673273 -9.6241817 0.90481383
38.913391 -12.209638 3.048656
13.106935 -4.1074648 -1.2137053
17.12129 -5.3654881 -0.74750972
24.243338 -7.5974026 0.12499809
39.351067 -12.316795 2.1196442
14.85347 -4.6491027 -1.0101229
20.090891 -6.288403 -0.38493568
30.690611 -9.6060915 0.90489501
39.47607 -12.340793 3.0912735
13.109271 -4.0981483 -1.2137567
17.123016 -5.3529034 -0.74755144
24.240618 -7.5686812 0.12466826
39.415527 -12.306765 2.122354
14.855515 -4.6383576 -1.0101545
20.095795 -6.2745376 -0.38509762
30.679424 -9.5790796 0.90413558
39.52166 -12.339903 3.0943553
13.110028 -4.0933623 -1.2137445
17.123167 -5.3463902 -0.74754143
24.249561 -7.5621848 0.12460899
39.409775 -12.289872 2.1216633
14.856311 -4.6329155 -1.0101551
20.096863 -6.2671733 -0.38515219
30.669334 -9.5524359 0.90340924
39.492462 -12.300534 3.091095
13.112206 -4.0839977 -1.2137822
17.127295 -5.3280015 -0.74767244
24.242973 -7.541564 0.1243647
39.466858 -12.277448 2.123975
14.86025 -4.6170745 -1.0102633
20.103859 -6.2462626 -0.38538888
30.698339 -9.5379639 0.90383476
39.501621 -12.27314 3.0908391
13.117131 -4.0704679 -1.2139935
17.129812 -5.315671 -0.7477501
24.249689 -7.5250893 0.12418871
41.645664 -12.90742 2.2400281
14.862011 -4.6062469 -1.0102773
20.107466 -6.2319937 -0.38552675
30.742517 -9.528161 0.90470654
39.519505 -12.233333 3.0907822
13.120184 -4.0613761 -1.2141138
17.133402 -5.3036747 -0.74787498
24.254421 -7.4987221 0.12389735
41.737461 -12.90394 2.2441633
14.863913 -4.5954652 -1.0103015
20.112484 -6.2104716 -0.38572648
30.73234 -9.4897442 0.90376478
39.550911 -12.212803 3.0922689
13.123231 -4.0522819 -1.2142341
17.139126 -5.2857847 -0.74807787
24.259241 -7.4816613 0.12371162
41.733574 -12.870826 2.2431536
14.868147 -4.5797219 -1.0104327
20.118044 -6.1968074 -0.38590243
30.789343 -9.4838057 0.90501279
39.567062 -12.17242 3.0920804
13.129649 -4.0392079 -1.2145869
17.14374 -5.2741036 -0.74824852
24.26054 -7.4635177 0.12350793
41.731953 -12.822482 2.2418673
14.870216 -4.568995 -1.0104696
20.122177 -6.1827025 -0.38605127
30.729275 -9.4300823 0.90260696
39.566074 -12.141886 3.0910378
13.133945 -4.0304947 -1.2148243
17.14876 -5.2559967 -0.74842232
24.271891 -7.4391956 0.12325023
41.778393 -12.804838 2.2435639
14.872725 -4.5584049 -1.0105369
20.127291 -6.1612148 -0.38625422
30.753218 -9.4139433 0.90288371
34.786377 -10.648543 2.7167842
13.141495 -4.0177588 -1.2152839
17.152458 -5.2440333 -0.74855405
24.273605 -7.4211869 0.12304868
41.741436 -12.745708 2.2403848
14.877591 -4.5428586 -1.0107139
20.128559 -6.1462369 -0.38634872
30.772673 -9.3964071 0.90302861
34.825371 -10.620606 2.7185605
13.147899 -4.0096817 -1.2157177
17.154428 -5.2315435 -0.74861085
24.281738 -7.3958778 0.12277453
14.880603 -4.5324235 -1.0108168
20.13315 -6.1245971 -0.38654253
30.792591 -9.3672476 0.90297425
34.863094 -10.605514 2.72066
13.15452 -4.0016656 -1.2161722
17.159218 -5.2133698 -0.74877679
24.289551 -7.3797307 0.12260379
35.138935 -10.676026 1.8846725
14.885144 -4.516778 -1.0109738
20.133493 -6.1093483 -0.3866199
30.826033 -9.3539143 0.90352917
34.882038 -10.571381 2.7208729
13.161707 -3.9887984 -1.2166013
17.16057 -5.2006969 -0.74880767
24.296978 -7.3634629 0.12243104
35.079659 -10.617903 1.8804952
14.888025 -4.5063043 -1.0110692
20.135546 -6.0946226 -0.38673031
30.789288 -9.3075638 0.90181524
34.942005 -10.562925 2.7247074
13.167348 -3.980473 -1.2169666
17.165924 -5.1826987 -0.74899989
24.306322 -7.3385124 0.12216275
35.111164 -10.600686 1.8815196
14.890303 -4.4956479 -1.0111241
20.142138 -6.0735998 -0.38696387
30.799149 -9.2870827 0.90167999
34.971172 -10.545102 2.7261393
13.172391 -3.9669476 -1.2171998
17.168037 -5.1702619 -0.7490651
24.314096 -7.3223414 0.12199159
35.119984 -10.563232 1.8809972
14.893312 -4.4795442 -1.01118
20.146708 -6.0596366 -0.38712326
30.813482 -9.2679424 0.90167588
34.982784 -10.508651 2.7257836
13.175968 -3.9579942 -1.2173759
17.172535 -5.1585426 -0.74923468
24.319769 -7.2962813 0.12170473
35.118958 -10.536194 1.88028
14.89598 -4.4690089 -1.0112629
20.15093 -6.0455694 -0.38727626
30.809116 -9.2314577 0.90091348
34.985653 -10.48289 2.7251682
13.179167 -3.9489262 -1.2175176
17.168835 -5.1378355 -0.74903411
24.32235 -7.2785511 0.1215075
35.144817 -10.517214 1.881003
14.898624 -4.4528012 -1.0112962
20.158892 -6.0249548 -0.38753754
30.823418 -9.2122974 0.90090901
34.978424 -10.454118 2.7237682
8.4144411 -2.5116527 -0.77719635
11.904392 -3.5533791 -0.51934171
24.3281 -7.2617702 0.12132608
35.112129 -10.467381 1.8782642
14.90176 -4.4424081 -1.011412
20.160883 -6.010221 -0.38764828
30.852741 -9.1858778 0.90113246
34.962502 -10.409489 2.7212763
8.421258 -2.5072861 -0.77772892
11.906866 -3.5450664 -0.51943225
24.336216 -7.2364464 0.12105135
35.029099 -10.416006 1.873166
11.966901 -3.5583935 -0.81214005
20.165663 -5.9886594 -0.38784936
30.814198 -9.1509876 0.89958549
34.963058 -10.383087 2.7204869
8.4312201 -2.5006433 -0.77850389
17.171778 -5.0930338 -0.74907506
24.341639 -7.2195659 0.12086821
35.010567 -10.383899 1.8715198
11.97319 -3.5466211 -0.81245178
20.167366 -5.9738464 -0.38795519
30.852596 -9.1389561 0.90028518
34.959373 -10.342167 2.7189538
8.4357195 -2.4955716 -0.77882314
17.178167 -5.0818839 -0.74932981
24.353981 -7.1954889 0.12061428
35.037155 -10.351878 1.8719594
11.978761 -3.5391765 -0.81275356
20.170742 -5.9595323 -0.38809344
30.84362 -9.1011753 0.89939249
34.981174 -10.322063 2.71982
8.4439478 -2.4915962 -0.77948701
17.191446 -5.0662398 -0.74987382
24.361435 -7.1792026 0.12044106
35.065716 -10.333705 1.8728317
11.979012 -3.5256155 -0.81265718
20.176331 -5.9382176 -0.38831142
30.884285 -9.0897408 0.90015781
34.991753 -10.298635 2.7198148
8.4487839 -2.4834085 -0.77979052
17.197071 -5.0548515 -0.7500962
24.366592 -7.1622376 0.12025643
35.092297 -10.30161 1.8732722
14.923 -4.3807602 -1.0122842
20.184814 -5.925406 -0.38854864
30.870752 -9.0506401 0.89913392
35.018845 -10.266772 2.7206802
8.4525642 -2.4781098 -0.78004456
17.205309 -5.0442266 -0.75043303
24.374229 -7.1367617 0.11997896
35.119637 -10.28301 1.8740796
14.926571 -4.370492 -1.0124334
20.191006 -5.904264 -0.38877916
30.888876 -9.0325403 0.89924246
35.021538 -10.241015 2.7200646
8.4568644 -2.4697564 -0.78030002
17.20784 -5.0254054 -0.75051039
24.379507 -7.1198311 0.11979485
41.841507 -12.219461 2.2320013
14.930531 -4.354681 -1.0125637
20.19887 -5.8912592 -0.38900515
30.895742 -9.0111399 0.89902353
50.738071 -14.779195 3.9389532
8.4598885 -2.464231 -0.78048527
17.20999 -5.0129962 -0.75058275
24.383913 -7.0934138 0.11950142
41.888054 -12.185464 2.2333221
14.932699 -4.3440037 -1.0126193
20.203724 -5.8773737 -0.38917348
30.917545 -8.982378 0.89903015
50.742233 -14.741983 3.9380865
8.4632826 -2.4588113 -0.78070509
17.211699 -4.993947 -0.75062591
24.393436 -7.0777168 0.11933804
41.911701 -12.160614 2.2338092
14.934598 -4.3332496 -1.0126572
20.208214 -5.8557339 -0.38937265
30.90975 -8.9567184 0.8983857
50.749172 -14.705587 3.9374375
8.4675264 -2.4504316 -0.78095734
17.21315 -4.9813423 -0.75066894
24.402876 -7.0619888 0.11917412
41.92054 -12.115598 2.2331219
14.938518 -4.3174314 -1.0127876
20.211281 -5.841331 -0.38950717
30.916565 -8.9353018 0.89816642
50.734833 -14.643859 3.9345484
8.4699402 -2.4447229 -0.78108764
17.216993 -4.9694304 -0.75081658
24.415852 -7.0380425 0.1189223
41.962139 -12.095885 2.2345665
14.939723 -4.3064814 -1.0127798
20.216106 -5.8197937 -0.38971376
30.991205 -8.9217196 0.89970809
50.750126 -14.609899 3.9345522
8.473546 -2.4393566 -0.78132832
17.223944 -4.9519029 -0.75109059
24.425039 -7.0222259 0.11875691
42.000999 -12.075334 2.2358646
14.943464 -4.290616 -1.0129004
20.219072 -5.8053656 -0.38984698
30.938885 -8.8832722 0.89777273
50.746342 -14.551281 3.9324901
8.4789305 -2.4312944 -0.78168774
17.22784 -4.9400048 -0.75124168
24.430201 -7.0052481 0.11857188
42.005768 -12.029095 2.2349644
14.94555 -4.2799225 -1.0129536
20.222067 -5.790947 -0.389981
30.918333 -8.8423357 0.89655304
50.753708 -14.515055 3.9318841
8.4841366 -2.4263785 -0.78207684
17.235098 -4.9225588 -0.75153071
24.434856 -6.9788995 0.11827934
42.055809 -12.011663 2.2368581
14.94804 -4.2693467 -1.0130349
20.227928 -5.7697124 -0.3902089
30.989279 -8.8392258 0.89819437
50.759922 -14.478504 3.931191
8.4898825 -2.418407 -0.78247094
17.239426 -4.9107804 -0.75170165
24.43206 -6.9596562 0.1180558
41.988464 -11.944886 2.2321272
14.953542 -4.2539864 -1.0132775
20.230671 -5.7552252 -0.39033869
30.981363 -8.8135843 0.89754969
50.755424 -14.419764 3.9290853
8.4980755 -2.4143281 -0.78313619
17.241606 -4.8983903 -0.75177938
24.433849 -6.9325113 0.11774952
42.013096 -11.920196 2.2326717
14.956688 -4.2435966 -1.0134047
20.235106 -5.7335882 -0.39054003
30.978189 -8.7776251 0.89683574
50.768883 -14.38529 3.9289577
8.5057812 -2.4101009 -0.78375673
17.247282 -4.8804893 -0.75200164
24.43425 -6.9141965 0.11754156
42.052994 -11.899799 2.2340274
14.962726 -4.2283845 -1.0136857
20.238913 -5.7194061 -0.39069098
31.01137 -8.7636442 0.8973819
50.771027 -14.328479 3.9273736
8.5149202 -2.4030607 -0.78446519
17.249666 -4.8681598 -0.75208932
24.434635 -6.895885 0.11733358
42.015892 -11.841793 2.2309132
14.966192 -4.2180839 -1.0138359
20.242672 -5.7052107 -0.39084131
31.010956 -8.7284689 0.89674914
50.776543 -14.291772 3.9266367
8.5229568 -2.398906 -0.78511709
17.254446 -4.8500066 -0.75227416
24.440603 -6.8699446 0.11704751
42.057404 -11.821804 2.2323558
14.969614 -4.2077694 -1.0139836
20.249496 -5.6842513 -0.39109015
30.999002 -8.7017536 0.89599043
50.78035 -14.25459 3.9257691
8.5323124 -2.3918991 -0.78584665
17.256207 -4.8375049 -0.75233573
24.443626 -6.852385 0.11685221
42.030689 -11.78264 2.2301784
14.973551 -4.1919618 -1.0141251
20.254246 -5.6703334 -0.39126027
31.010715 -8.6816902 0.89591628
50.775593 -14.19591 3.9236629
8.5357361 -2.3864329 -0.78607434
17.259912 -4.8255496 -0.75248253
24.450678 -6.8267527 0.11657126
42.086464 -11.750753 2.2319989
14.976692 -4.1815681 -1.0142552
20.259665 -5.6566005 -0.39144355
31.006824 -8.6455965 0.89518571
50.789459 -14.161565 3.9235778
8.5415916 -2.3816421 -0.78652644
17.263632 -4.8071041 -0.75262338
24.455776 -6.8097758 0.11638582
42.136951 -11.733147 2.2339182
14.980226 -4.1656494 -1.0143714
20.266024 -5.6355062 -0.3916848
31.013422 -8.6241055 0.89496464
50.778534 -14.120319 3.9215796
8.5501461 -2.3743804 -0.78718406
17.267204 -4.7951117 -0.75276542
24.463913 -6.7936416 0.11621477
42.094543 -11.673852 2.2305355
14.983799 -4.155376 -1.0145321
20.268822 -5.6210427 -0.39181811
31.037123 -8.5956907 0.89503169
50.788265 -14.065744 3.9206038
8.5567465 -2.3697798 -0.78770536
17.268585 -4.7825127 -0.75281245
24.474178 -6.7688947 0.11594885
42.034454 -11.625591 2.2265978
14.986276 -4.1447978 -1.014619
20.273149 -5.5993867 -0.39202106
31.048203 -8.5754261 0.89494044
50.789654 -14.027959 3.9195619
8.5659666 -2.3626778 -0.78842551
17.27305 -4.7642789 -0.75298798
24.481949 -6.7526484 0.11577588
42.162167 -11.629233 2.2326083
14.990484 -4.1290679 -1.0147839
20.275206 -5.584723 -0.39214066
31.063225 -8.5562391 0.89496285
50.789707 -13.970746 3.9178467
8.5791636 -2.359874 -0.78955477
17.273657 -4.751472 -0.75300229
24.493263 -6.7281766 0.11551464
42.159676 -11.581051 2.2313466
14.992905 -4.1184759 -1.0148685
20.276499 -5.5698524 -0.39224574
31.038851 -8.5145655 0.8936463
50.788208 -13.932201 3.9165876
8.5851183 -2.3550663 -0.79001784
17.276884 -4.732904 -0.75312555
24.500555 -6.7117877 0.11533921
42.167202 -11.551465 2.2309935
14.996259 -4.1025128 -1.0149776
20.281185 -5.548305 -0.39245698
31.073606 -8.5007782 0.89423752
50.796257 -13.896286 3.9160669
8.5938396 -2.3477848 -0.79069364
17.277618 -4.7201405 -0.75314647
24.50795 -6.6954231 0.11516418
42.176476 -11.506537 2.2303586
14.998284 -4.091815 -1.0150367
20.284372 -5.5339594 -0.39259934
31.064981 -8.4634628 0.89337623
50.803497 -13.841099 3.9149163
8.5997505 -2.3429489 -0.79115349
12.035152 -3.2789032 -0.52461541
24.514723 -6.6696935 0.11488126
42.129181 -11.462039 2.2271097
14.999777 -4.0809727 -1.0150603
20.291058 -5.512959 -0.39285019
31.101412 -8.4500675 0.89401531
50.804714 -13.803338 3.9138741
8.6065092 -2.3351114 -0.79165006
12.039666 -3.266593 -0.52480155
24.520882 -6.6529865 0.1147003
42.173332 -11.442436 2.2286961
12.010787 -3.2542567 -0.81269836
20.294144 -5.4985867 -0.39299127
31.077913 -8.4203892 0.892932
50.807903 -13.747087 3.9124193
8.6097088 -2.3295276 -0.79186141
12.045256 -3.259083 -0.52503854
24.523335 -6.6352749 0.11450198
42.196613 -11.401325 2.228807
12.010153 -3.2450864 -0.81259465
20.299671 -5.4848752 -0.39317986
31.10708 -8.3933353 0.89315867
50.813568 -13.710555 3.9117243
8.6180897 -2.3253393 -0.79254961
17.292004 -4.6592665 -0.75372452
24.532759 -6.6102614 0.11423127
42.205143 -11.37202 2.2285125
12.012823 -3.2368109 -0.81271499
20.304495 -5.4633698 -0.39339608
31.127645 -8.3755751 0.89334184
50.818642 -13.67387 3.9109857
8.6217508 -2.3166442 -0.79276323
17.298073 -4.6479511 -0.75398058
24.538839 -6.5935283 0.11404978
42.260006 -11.339349 2.2302928
12.025309 -3.2266715 -0.81346995
20.308754 -5.4493136 -0.39356077
31.093891 -8.3432188 0.89196682
50.817734 -13.616573 3.9092267
8.626029 -2.3113379 -0.79307503
17.307905 -4.63764 -0.75440109
24.547808 -6.5683832 0.11377673
42.198399 -11.291243 2.2262995
12.031092 -3.2192211 -0.81380194
20.313652 -5.4278307 -0.39377943
31.134874 -8.319273 0.89253306
50.820484 -13.57929 3.9083142
8.6309805 -2.3062077 -0.7934491
17.312782 -4.6195207 -0.75460231
24.556314 -6.5522914 0.11360632
42.292229 -11.284716 2.2305076
12.031698 -3.2058854 -0.81375492
20.31834 -5.4138885 -0.39395306
31.163887 -8.3037195 0.8929587
50.828506 -13.524422 3.9072495
8.6346235 -2.2974958 -0.79366302
17.32271 -4.6092176 -0.75502807
24.562355 -6.5355382 0.11342444
42.283688 -11.235018 2.2289462
12.037394 -3.1984043 -0.81408197
20.32098 -5.3994007 -0.39408728
31.187294 -8.2749882 0.89302075
50.824974 -13.485495 3.9058595
8.6406193 -2.2926333 -0.79413408
17.328312 -4.5912824 -0.75526249
24.570583 -6.5101838 0.11314766
42.368465 -11.225883 2.2326746
12.029859 -3.1874125 -0.81351471
20.325712 -5.3778768 -0.39430407
31.180046 -8.2497692 0.89240819
50.832146 -13.449418 3.9052939
8.6421041 -2.2833428 -0.79415113
12.059069 -3.1861439 -0.52559596
24.576937 -6.4935079 0.11296707
42.294216 -11.158823 2.2276554
12.026283 -3.172991 -0.81318742
20.329647 -5.3637342 -0.39446405
31.159754 -8.2211285 0.89142305
50.834377 -13.393064 3.9037948
8.645647 -2.2778227 -0.79439765
12.064607 -3.1785982 -0.52583355
24.58482 -6.4680557 0.11268853
42.21769 -11.107114 2.2228899
12.025625 -3.1638391 -0.81308639
20.33234 -5.3416772 -0.39464223
31.145695 -8.1825428 0.89041555
50.849396 -13.359064 3.9038365
8.6439171 -2.270915 -0.79416013
12.07117 -3.1668127 -0.5261144
24.591257 -6.4513965 0.11250819
42.312054 -11.100361 2.227123
12.029715 -3.1514492 -0.81327903
20.336365 -5.3275595 -0.3948046
31.184269 -8.1694078 0.89111483
50.842484 -13.300347 3.9016428
8.6439486 -2.2612491 -0.79404593
17.295052 -4.5243697 -0.7537896
24.598476 -6.4349389 0.11233136
42.296501 -11.048953 2.225204
12.027343 -3.1418567 -0.81306338
20.338148 -5.3128567 -0.39492372
31.189983 -8.1360102 0.8906737
50.842171 -13.262349 3.9005129
8.6379519 -2.2532384 -0.79341763
17.307037 -4.5145979 -0.75430799
24.606375 -6.4094815 0.11205261
42.236267 -11.001725 2.2213042
15.03672 -3.9167728 -1.0164324
20.344717 -5.29182 -0.3951785
31.192223 -8.1133413 0.89033526
50.846355 -13.225534 3.89973
8.6391678 -2.2438958 -0.79341406
17.324818 -4.4998641 -0.75507772
24.612772 -6.3928027 0.11187188
42.339108 -10.996955 2.225981
15.043783 -3.9017947 -1.016808
20.347649 -5.2774186 -0.39532053
31.192255 -8.0901041 0.88993424
50.849472 -13.169509 3.8983169
8.6340227 -2.2361259 -0.79286522
17.331917 -4.4887943 -0.75538421
24.620022 -6.3671718 0.11159001
42.376682 -10.959357 2.2268608
15.048534 -3.8918161 -1.0170618
20.353895 -5.263876 -0.3955273
31.202988 -8.0580235 0.88963825
50.851894 -13.132259 3.8974035
8.6347466 -2.2298822 -0.79285586
17.345858 -4.4730272 -0.7559883
24.623781 -6.3498068 0.1113972
42.334476 -10.916916 2.2239141
15.054629 -3.8765774 -1.017374
20.360415 -5.2428207 -0.3957825
31.25569 -8.0483618 0.89073932
50.857681 -13.095888 3.8967505
8.6358252 -2.2205169 -0.79284197
17.351618 -4.4615955 -0.75623745
24.627945 -6.3325467 0.11120619
42.368015 -10.878259 2.2245846
15.058155 -3.8662777 -1.0175464
20.367016 -5.229362 -0.39599687
31.232906 -8.0076284 0.889489
50.86462 -13.040893 3.8956404
13.160914 -3.3742526 -1.2081697
17.354155 -4.4493337 -0.75634664
24.632557 -6.3062396 0.11091228
42.372211 -10.847811 2.2240789
15.061825 -3.8560135 -1.0177292
20.37418 -5.2084651 -0.39626566
31.248142 -7.9882898 0.88952267
50.872608 -13.005097 3.8951602
13.166954 -3.3611102 -1.2085544
17.358229 -4.4310112 -0.75652289
24.632414 -6.2878823 0.11070185
42.454636 -10.837337 2.2276788
15.064408 -3.8398702 -1.0178068
20.379322 -5.1946249 -0.39645231
31.240095 -7.9630017 0.8888939
50.873783 -12.948656 3.8936164
13.171777 -3.3525481 -1.2088847
17.359459 -4.4184189 -0.75657618
24.638039 -6.2618437 0.11041249
42.388287 -10.77313 2.2231119
15.066738 -3.8292639 -1.0179003
20.384834 -5.1808767 -0.39664641
31.242712 -7.9288349 0.88836962
50.868679 -12.90955 3.8921394
13.177424 -3.3441918 -1.2092913
17.36282 -4.399919 -0.75672293
24.638088 -6.2435479 0.110203
42.397514 -10.743971 2.2228734
15.070275 -3.8133664 -1.0180446
20.390282 -5.1595354 -0.39688325
31.261911 -7.910481 0.88851672
50.829556 -12.861857 3.8880625
13.186752 -3.3318646 -1.2099811
17.364899 -4.3875465 -0.75681424
24.640776 -6.225925 0.11000533
42.347488 -10.684112 2.2191703
15.073493 -3.8029857 -1.0181994
20.395315 -5.1456614 -0.39706877
31.265644 -7.8765974 0.8880254
50.768696 -12.789904 3.8817878
13.195971 -3.3243949 -1.2107168
17.367498 -4.3753066 -0.75692868
24.645578 -6.1996889 0.10971224
42.41851 -10.670538 2.2221725
15.07746 -3.7927923 -1.0184056
20.400801 -5.1243281 -0.39730734
31.283602 -7.8578992 0.88813746
50.823586 -12.766005 3.8849063
13.205111 -3.316895 -1.2114458
17.370434 -4.3567066 -0.75705916
24.650583 -6.182653 0.10952485
42.448673 -10.64662 2.2230334
15.082584 -3.777292 -1.0186598
20.404713 -5.1101689 -0.39747167
31.286814 -7.8354893 0.88783115
50.839802 -12.713494 3.884532
13.216603 -3.3050721 -1.212337
17.373466 -4.3445773 -0.75719351
24.651674 -6.1646366 0.10932006
42.507511 -10.614077 2.2250371
15.087214 -3.7672601 -1.0189121
20.40831 -5.0959311 -0.39763016
31.306946 -7.8056998 0.88780665
50.845291 -12.677157 3.8838782
13.223845 -3.2970753 -1.2128932
17.375839 -4.3258424 -0.75730109
24.659937 -6.1392713 0.10904221
42.502438 -10.581292 2.2240543
15.089267 -3.7565832 -1.0189906
20.413364 -5.0744901 -0.39786172
31.274311 -7.7743759 0.88648498
50.843384 -12.638987 3.8826611
13.228599 -3.2835503 -1.2131684
17.378281 -4.3135681 -0.75741082
24.661867 -6.1214709 0.10884112
42.461262 -10.523832 2.2208273
15.093748 -3.7409177 -1.0192044
20.417734 -5.0604434 -0.39803591
31.291107 -7.7553601 0.88656515
50.849297 -12.583931 3.8815095
17.380146 -4.3011522 -0.75749588
24.668379 -6.0956702 0.10855542
42.520313 -10.506965 2.2232015
15.09457 -3.729938 -1.0192013
20.424231 -5.0393577 -0.39829659
31.320263 -7.7277818 0.88679755
50.834801 -12.542687 3.8793371
13.204405 -3.2579792 -1.2107381
17.385315 -4.2831154 -0.7577275
24.672136 -6.0783257 0.10836235
42.431061 -10.453485 2.217823
15.09751 -3.7138934 -1.0193131
20.429485 -5.025526 -0.39848873
31.321712 -7.7049456 0.88644344
50.795742 -12.476633 3.8747628
13.234888 -3.2508008 -1.2133758
17.388067 -4.2709198 -0.75785232
24.676716 -6.0611839 0.10817285
42.505093 -10.424523 2.2206256
15.098767 -3.7030256 -1.0193408
20.434427 -5.0116148 -0.39867505
31.341682 -7.6750603 0.88641638
50.683617 -12.41158 3.8651519
13.239036 -3.2420211 -1.2136519
17.394154 -4.2531052 -0.75812554
24.68453 -6.0357013 0.10789267
42.529999 -10.399159 2.2212164
15.100849 -3.6923616 -1.0194247
20.44171 -4.9907126 -0.39895248
31.326593 -7.6481876 0.8855955
50.584442 -12.349868 3.8565354
13.247324 -3.2293501 -1.2142568
17.39753 -4.2410612 -0.75827855
24.690598 -6.0189199 0.10770956
42.551125 -10.357113 2.2212558
15.104583 -3.6765156 -1.0195929
20.444387 -4.9762459 -0.39909533
31.356403 -7.6322737 0.8860442
50.551964 -12.28586 3.8524842
13.252742 -3.2208705 -1.2146509
17.401731 -4.2292171 -0.75846803
24.703114 -5.9945717 0.10744964
42.618641 -10.342036 2.2240713
15.106002 -3.6656921 -1.0196334
20.449509 -4.954814 -0.39933157
31.329058 -7.5908747 0.88468182
50.619053 -12.264745 3.8565478
13.260197 -3.2128799 -1.2152323
17.406523 -4.2110815 -0.75868708
24.710484 -5.978096 0.10727199
42.572971 -10.299487 2.2209809
15.110313 -3.6499875 -1.0198427
20.452162 -4.9403434 -0.39947456
31.365137 -7.5764384 0.88530773
50.794056 -12.26961 3.8688304
13.267588 -3.199965 -1.215758
17.410553 -4.1991925 -0.75887012
24.718904 -5.9618692 0.10709881
42.568966 -10.251343 2.2197137
15.111373 -3.6390798 -1.0198604
20.454578 -4.9258161 -0.39961317
31.381569 -7.5456362 0.88518256
50.891003 -12.236641 3.8746397
13.271058 -3.1909995 -1.2159756
17.413475 -4.1870356 -0.75900531
24.724451 -5.9358168 0.10680825
42.614254 -10.230779 2.2213705
15.11447 -3.628664 -1.0200163
20.458315 -4.9040556 -0.39982376
31.387974 -7.5240002 0.88497114
50.894978 -12.200017 3.8738949
13.27699 -3.1777222 -1.2163699
17.417271 -4.1686592 -0.75918335
24.728819 -5.9186091 0.10661739
42.57132 -10.189043 2.2184296
15.116848 -3.6124961 -1.020098
20.460022 -4.8893623 -0.39994913
31.36421 -7.495153 0.88390976
50.906063 -12.146317 3.8731711
13.279688 -3.1685674 -1.2165184
17.419489 -4.1563344 -0.75928885
24.729874 -5.8914881 0.10630741
42.654854 -10.161821 2.2217286
15.1197 -3.6020212 -1.0202385
20.4613 -4.8745699 -0.40006638
31.407381 -7.4707103 0.88453937
50.905464 -12.108618 3.8720829
13.282797 -3.1595097 -1.2167051
17.423519 -4.1380162 -0.75947869
24.735806 -5.8746552 0.10612322
42.653984 -10.130151 2.2209818
15.121898 -3.5858147 -1.0203102
20.463539 -4.8524632 -0.400249
31.385239 -7.4422965 0.88352525
50.901424 -12.070117 3.8707354
13.284873 -3.1453083 -1.2167495
17.425714 -4.1256886 -0.75958431
24.741917 -5.8578625 0.10593973
42.69022 -10.091542 2.221818
15.124807 -3.5753536 -1.020456
20.466082 -4.8379779 -0.40039164
31.362204 -7.402154 0.88229233
50.861759 -12.004468 3.8661635
13.286829 -3.135977 -1.2168323
17.42927 -4.1136818 -0.75974959
24.752525 -5.8330069 0.10567053
42.638603 -10.047915 2.2184336
