# .PCD v0.7 - Point Cloud Data file format
VERSION 0.7
FIELDS x y z
SIZE 4 4 4
TYPE F F F
COUNT 1 1 1
WIDTH 1588
HEIGHT 1
VIEWPOINT 0 0 0 1 0 0 0
POINTS 1588
DATA ascii
22.574896 24.157839 -0
10.942044 11.709296 -1.8741279
14.175752 15.180368 -1.4523842
14.352146 15.369264 -0.48822001
36.82513 39.434879 1.2526884
12.612521 13.515809 -1.7247093
14.328555 15.354742 -0.97572559
22.591604 24.209578 -0
10.934142 11.72543 -1.8748765
14.369677 15.409589 -1.4733548
14.332836 15.370083 -0.48792806
36.764248 39.452423 1.252022
12.608889 13.530842 -1.7255039
14.319561 15.366597 -0.97584343
22.581015 24.249088 -0
10.931955 11.739507 -1.8759063
14.373069 15.434817 -1.4748071
14.311067 15.378995 -0.48773494
12.605586 13.546247 -1.7263458
14.310848 15.389528 -0.97634739
22.59483 24.297915 -0
10.924595 11.756263 -1.8767548
14.375599 15.469984 -1.4767282
14.29687 15.385263 -0.48761708
12.596528 13.56497 -1.7270497
14.31189 15.41221 -0.97715229
22.571455 24.306784 -0
10.921768 11.769689 -1.8776804
14.380195 15.496613 -1.4783113
14.281814 15.401372 -0.48765334
12.592133 13.579236 -1.7277465
14.315985 15.438221 -0.97816747
22.576283 24.3631 -0
10.917241 11.781294 -1.8783156
14.387152 15.536709 -1.4806983
14.276763 15.417499 -0.48784828
12.582767 13.597668 -1.7284141
14.318865 15.473796 -0.97947097
22.585508 24.407211 -0
10.909508 11.797706 -1.8791096
14.396858 15.568979 -1.4828155
14.276972 15.439333 -0.48822364
12.578708 13.612333 -1.7291616
14.326358 15.503592 -0.98072362
22.562321 24.433432 -0
10.904875 11.809224 -1.8797312
14.404941 15.599553 -1.4847692
14.274754 15.469399 -0.48870146
12.575136 13.627542 -1.7299781
14.324769 15.534478 -0.98172796
19.020849 20.627138 -0
10.896288 11.824745 -1.8803846
14.407213 15.634831 -1.4866903
14.280596 15.497425 -0.48927176
12.56734 13.647742 -1.7308707
14.329462 15.561353 -0.98279393
19.003958 20.637711 -0
10.892076 11.836746 -1.8810833
14.414342 15.664499 -1.4885541
14.287384 15.52653 -0.48987561
12.565865 13.665273 -1.731981
14.330163 15.583934 -0.98358792
18.983103 20.658434 -0
10.887275 11.848119 -1.8816822
14.415853 15.699102 -1.490407
14.289421 15.561417 -0.49050394
18.953318 20.640478 0.65059859
12.562819 13.681118 -1.7328773
14.324468 15.610518 -0.98431849
18.967434 20.670328 -0
10.879267 11.864317 -1.8824444
14.422112 15.727946 -1.492189
14.297161 15.591681 -0.49114314
18.932722 20.661438 0.65063393
12.555817 13.702267 -1.7338897
14.323215 15.631043 -0.98498201
18.954556 20.685265 -0
10.874518 11.875772 -1.8830569
14.429076 15.757611 -1.4940474
14.29957 15.627129 -0.49178776
18.919085 20.675514 0.65066111
12.55184 13.717141 -1.7346625
14.315501 15.655508 -0.98557842
22.59095 24.705584 -0
18.87109 20.637526 1.2992169
10.869655 11.887113 -1.8836513
14.429496 15.791238 -1.4958023
14.30757 15.657807 -0.49243876
18.903645 20.687622 0.65062666
12.540982 13.734126 -1.7351488
14.307988 15.669245 -0.98581409
22.598192 24.748175 -0
18.857569 20.666153 1.2997752
10.862457 11.904249 -1.8845632
14.436617 15.821198 -1.4976851
14.315325 15.688273 -0.49308249
18.882969 20.708504 0.65066111
12.536213 13.748166 -1.7358165
14.292866 15.674645 -0.98552585
22.59989 24.802143 -0
18.846186 20.682659 1.2999855
10.857854 11.915902 -1.8852075
14.442628 15.849995 -1.4994563
14.316873 15.723006 -0.49370265
12.529912 13.760538 -1.7362736
14.27387 15.686776 -0.98534822
22.603863 24.841318 -0
18.833397 20.69763 1.3000997
10.850042 11.932404 -1.8860197
14.445291 15.886301 -1.501459
14.324757 15.753743 -0.49435365
12.521223 13.779956 -1.7370683
14.250135 15.682673 -0.98446536
22.605797 24.878313 -0
18.814386 20.720287 1.3002846
10.846352 11.945088 -1.8868272
14.451406 15.915336 -1.5032493
14.326253 15.788575 -0.49497563
12.516774 13.794397 -1.7377868
14.190543 15.639013 -0.98110253
22.58288 24.905443 -0
10.8433 11.958492 -1.8877482
14.448626 15.945794 -1.5046961
14.334028 15.819322 -0.4956257
12.510519 13.81655 -1.7389262
14.063398 15.531542 -0.97343594
22.613075 24.973759 -0
10.83353 11.972891 -1.8882293
14.449883 15.969573 -1.5059878
14.340746 15.848958 -0.49624044
12.505253 13.830128 -1.7395357
13.951979 15.430128 -0.96646917
22.579447 24.989164 -0
10.83123 11.987158 -1.8892864
14.448239 15.990181 -1.5069796
14.342199 15.883966 -0.49686605
12.503101 13.847168 -1.7405808
13.874148 15.376389 -0.9621926
22.587116 25.032764 -0
10.825848 11.99803 -1.8898082
12.60143 13.975671 -1.3158796
14.349386 15.914248 -0.49749979
12.493436 13.865628 -1.7412556
13.839693 15.359749 -0.96054655
22.583363 25.063763 -0
10.817561 12.014117 -1.8905568
12.591853 13.984668 -1.3158987
14.356564 15.944577 -0.49813446
12.489243 13.880447 -1.7420213
13.76698 15.300516 -0.95624101
22.5763 25.108747 -0
10.812414 12.025272 -1.8911239
12.573686 13.993933 -1.3155308
14.358495 15.980343 -0.49878183
12.485554 13.895846 -1.7428595
13.695162 15.25279 -0.95236152
22.571684 25.138889 -0
10.804246 12.041527 -1.8918998
12.569196 14.008595 -1.3160839
14.366164 16.011351 -0.49943647
12.477538 13.916211 -1.7437739
12.653648 14.112627 -0.88061959
22.595226 25.200478 -0
10.799409 12.053055 -1.8925259
12.556162 14.01374 -1.3157433
14.368406 16.047625 -0.50009835
12.47389 13.931699 -1.7446231
12.639565 14.126656 -0.88066852
22.541084 25.193123 -0
10.795674 12.065825 -1.8933471
12.545246 14.031093 -1.3161384
14.375003 16.077564 -0.50071847
12.465487 13.951686 -1.7454903
12.629778 14.135563 -0.880674
22.566433 25.256916 -0
10.787426 12.082043 -1.8941184
12.535837 14.040283 -1.3161793
14.382814 16.108919 -0.50138217
12.461596 13.966944 -1.7463104
12.622349 14.147114 -0.88084441
22.540361 25.280972 -0
10.784204 12.095421 -1.8950349
12.525773 14.04874 -1.3161521
14.383551 16.143742 -0.50199687
12.45663 13.981012 -1.7469816
12.607682 14.1605 -0.88085526
22.526604 25.301077 -0
10.776381 12.112157 -1.895888
12.511158 14.061966 -1.3161629
14.390499 16.174259 -0.50263339
12.445935 13.998496 -1.7475368
12.600023 14.171805 -0.88101119
22.608601 25.428898 -0
10.772277 12.124578 -1.8966547
12.502243 14.071717 -1.3162583
14.391755 16.209822 -0.50326985
12.441298 14.01297 -1.7482588
12.590645 14.181182 -0.88104743
22.510019 25.371475 -0
10.768728 12.137639 -1.8975213
12.48807 14.085443 -1.3163183
14.3987 16.240465 -0.50390905
12.431002 14.030939 -1.7488757
12.576434 14.195089 -0.88109273
10.760049 12.15347 -1.8982337
12.479421 14.0955 -1.3164437
14.40553 16.27104 -0.50454557
12.427234 14.046431 -1.7497249
12.566909 14.204304 -0.88111997
10.755854 12.165833 -1.8989913
12.470455 14.105202 -1.3165363
14.406945 16.307013 -0.50519294
12.423631 14.062128 -1.7505993
12.552027 14.217457 -0.88111997
19.093927 21.627348 -0
10.749618 12.1759 -1.8993906
12.456141 14.118778 -1.3165853
14.414236 16.33824 -0.50584847
12.416434 14.083678 -1.7516625
12.542459 14.226625 -0.8811453
19.09409 21.657991 -0
10.741375 12.192273 -1.9001892
12.446796 14.128056 -1.3166398
14.422008 16.37007 -0.50652212
12.413486 14.100166 -1.752635
12.532009 14.234793 -0.88110906
19.074677 21.681698 -0
10.735346 12.202595 -1.9006293
12.431789 14.140848 -1.316618
14.424041 16.406984 -0.50719666
12.410163 14.116249 -1.7535566
12.516246 14.246942 -0.88104922
19.060953 21.696625 -0
10.726708 12.218554 -1.9013642
12.420988 14.14847 -1.31652
14.433014 16.440323 -0.50791568
19.041855 21.705427 0.67037308
12.40217 14.136985 -1.7545182
12.50537 14.25462 -0.88098395
19.046471 21.71069 -0
10.722294 12.230736 -1.9020947
12.410363 14.156288 -1.3164409
14.435218 16.477606 -0.50860018
19.019979 21.71105 0.67013645
12.398372 14.152574 -1.7553781
12.490436 14.267708 -0.88098395
22.561249 25.771502 -0
10.718838 12.244028 -1.9029976
12.39489 14.168543 -1.3163728
14.444024 16.510899 -0.50931644
19.004715 21.724205 0.67013282
12.389304 14.172137 -1.7561946
12.479059 14.274808 -0.88088429
22.559061 25.805334 -0
18.963568 21.692444 1.3386192
10.709533 12.259278 -1.9036237
12.384098 14.176166 -1.3162774
14.451737 16.543007 -0.50999558
18.981571 21.743654 0.67011923
12.38616 14.188519 -1.7571526
12.470091 14.284663 -0.88095498
22.571699 25.874422 -0
18.935274 21.70591 1.3382258
10.706225 12.272775 -1.9045584
12.374096 14.18469 -1.3162665
14.453677 16.580238 -0.51067644
18.96826 21.759048 0.67018539
12.3819 14.203642 -1.7579545
12.454587 14.297096 -0.88091689
22.556324 25.893267 -0
18.917887 21.716564 1.3380681
10.698258 12.289598 -1.9054295
12.359619 14.198082 -1.3163074
14.460997 16.612034 -0.51134467
12.372763 14.223203 -1.7587709
12.445192 14.306464 -0.88095862
22.572468 25.948353 -0
18.895416 21.736687 1.338088
10.6952 12.303418 -1.906414
12.350061 14.207119 -1.3163456
14.463184 16.649721 -0.51203829
12.368339 14.238179 -1.7595546
12.434945 14.314855 -0.8809405
22.567945 25.998081 -0
10.692381 12.317533 -1.907444
12.335509 14.220427 -1.316381
14.470979 16.682205 -0.51272643
12.359842 14.25853 -1.7604691
12.42051 14.328518 -0.88098037
22.593159 26.063862 -0
10.685369 12.335526 -1.9084966
12.326191 14.229742 -1.3164463
14.479375 16.715446 -0.51343727
12.35439 14.27236 -1.7611114
12.409636 14.336183 -0.88091874
22.599499 26.107981 -0
10.682694 12.34985 -1.9095583
12.315719 14.237724 -1.3163891
14.48306 16.755121 -0.51418984
12.350171 14.287631 -1.7619314
12.39454 14.349081 -0.88091326
22.572121 26.131603 -0
10.679168 12.363206 -1.9104702
12.300344 14.250083 -1.3163401
14.490905 16.787872 -0.51488435
12.340766 14.307006 -1.7627261
12.383755 14.356844 -0.8808589
22.601736 26.202847 -0
10.670598 12.379466 -1.9112552
12.2894 14.257516 -1.3162338
14.500522 16.822744 -0.51564324
12.335192 14.320745 -1.7633574
12.372684 14.364274 -0.88078457
22.555937 26.205183 -0
10.666838 12.392588 -1.9121308
12.273701 14.269491 -1.3161521
14.50215 16.860302 -0.51632863
12.332698 14.338082 -1.7644315
12.356644 14.376069 -0.88071388
22.593399 26.285799 -0
10.65838 12.409019 -1.912943
12.262542 14.276667 -1.3160239
14.510884 16.894299 -0.51705945
12.324237 14.358633 -1.7653713
12.345689 14.383626 -0.88064861
22.588373 26.317099 -0
10.653806 12.421228 -1.9136781
12.252242 14.28484 -1.3159885
14.512117 16.931576 -0.51773489
12.320943 14.375089 -1.7663366
12.329401 14.395123 -0.88056159
22.587509 26.37192 -0
10.649371 12.433614 -1.9144403
12.23682 14.29713 -1.3159395
14.520557 16.96538 -0.51845843
12.301129 14.382426 -1.7656543
12.318892 14.403194 -0.88052893
22.580517 26.401041 -0
10.639924 12.448947 -1.9150846
12.226988 14.305846 -1.3159559
14.527892 16.997955 -0.51914388
12.284164 14.382907 -1.7646601
12.308074 14.410901 -0.88047457
22.57378 26.449184 -0
10.633347 12.458851 -1.9154657
12.216568 14.313875 -1.3159095
14.528913 17.035236 -0.51981753
12.26347 14.378991 -1.7631289
12.292672 14.423426 -0.88045281
22.595976 26.512655 -0
10.623464 12.473701 -1.9160373
12.202354 14.32758 -1.315994
14.528359 17.058695 -0.52022374
12.232903 14.37361 -1.7608973
12.282246 14.431587 -0.88042742
22.571764 26.52173 -0
10.617166 12.483952 -1.9164729
12.192122 14.335829 -1.3159695
14.511322 17.074881 -0.52025366
12.215762 14.373789 -1.759874
12.272294 14.440308 -0.88043648
22.561806 26.566343 -0
10.611285 12.494703 -1.9169856
12.176876 14.348321 -1.315945
14.504047 17.090487 -0.52042049
12.235721 14.427864 -1.764925
12.256887 14.452824 -0.88041657
22.58153 26.627222 -0
10.602736 12.511166 -1.9178069
12.163581 14.352954 -1.3155907
14.469542 17.073973 -0.51960993
12.276067 14.495942 -1.7722039
12.247828 14.462598 -0.8804909
14.400783 17.004869 -0
10.597908 12.523185 -1.9185146
12.152727 14.36046 -1.3155009
14.43216 17.066067 -0.51890904
12.275035 14.51526 -1.7735175
12.233356 14.476221 -0.88053983
14.381504 17.018209 -0
10.594547 12.536952 -1.9194901
12.132352 14.366867 -1.3149232
14.424501 17.081181 -0.51906228
14.330318 16.96965 0.51567316
12.2665 14.536013 -1.7744827
12.224254 14.48595 -0.88061231
14.363901 17.021469 -0
10.58654 12.55412 -1.9204202
12.119858 14.372415 -1.3146561
14.418941 17.098799 -0.51929164
14.314427 16.986889 0.51574111
12.266024 14.556053 -1.7758833
12.215697 14.496331 -0.88072473
14.35407 17.046003 -0
10.583097 12.567829 -1.9213866
14.3011 16.995136 -1.5531878
14.41262 17.127665 -0.51970965
14.306739 17.001837 0.51589161
12.266 14.576665 -1.7773529
12.201238 14.509981 -0.8807773
14.346264 17.060894 -0
10.575396 12.585409 -1.9223802
14.289883 17.005892 -1.5532587
14.421913 17.163015 -0.5204767
14.294828 17.023838 0.5161047
12.257406 14.597455 -1.7783217
14.666508 17.466475 -1.0596191
14.346432 17.085295 -0
10.57324 12.600696 -1.9235871
14.280512 17.018848 -1.5535312
14.424231 17.202318 -0.52121019
14.295033 17.048237 0.51654172
12.256834 14.617483 -1.7797188
14.667147 17.49202 -1.0605472
14.343008 17.117584 -0
10.570296 12.615063 -1.9246534
14.262207 17.033226 -1.5534794
14.431698 17.235649 -0.52191466
14.300227 17.078634 0.51716006
12.248833 14.63905 -1.780782
14.665648 17.527479 -1.0617654
14.354367 17.155455 -0
19.030886 22.744541 1.3778005
10.563576 12.633893 -1.9258375
14.253761 17.047304 -1.5538554
14.439877 17.269896 -0.52264637
14.299311 17.113918 0.51777482
12.247288 14.657985 -1.7820446
14.669195 17.556608 -1.0629094
14.353868 17.191406 -0
19.020912 22.781052 1.3788048
10.560174 12.647758 -1.9268266
14.241531 17.056862 -1.55382
14.442599 17.309956 -0.52340072
14.3083 17.148994 0.51853371
12.244029 14.674893 -1.7830607
14.672042 17.597435 -1.0644503
14.365478 17.229746 -0
19.001255 22.789829 1.3785329
10.552014 12.66492 -1.9277568
14.225409 17.073862 -1.5540107
14.449309 17.342598 -0.52408254
14.318748 17.185892 0.51934695
12.236692 14.697361 -1.7842327
14.682423 17.634901 -1.0660964
14.37464 17.265228 -0
19.001785 22.839052 1.3803058
10.548133 12.678248 -1.9286642
14.214282 17.084747 -1.5540979
14.451188 17.381832 -0.52481055
14.318318 17.222017 0.51998526
12.232173 14.71281 -1.7850709
14.68949 17.668461 -1.067505
14.375198 17.302715 -0
10.543469 12.690653 -1.929431
14.19952 17.103401 -1.5544412
14.45716 17.413731 -0.52546883
14.328343 17.25857 0.52078676
12.22406 14.734411 -1.7861377
14.693179 17.710592 -1.0691203
14.385189 17.339354 -0
10.535795 12.708467 -1.9304609
14.189665 17.115831 -1.5546702
14.463219 17.445797 -0.52613157
14.329545 17.296843 0.52148855
12.219501 14.74986 -1.786976
14.702169 17.746628 -1.0706756
14.392568 17.372915 -0
10.532265 12.722275 -1.9314409
14.181664 17.130505 -1.5551034
14.468294 17.476736 -0.52675992
14.337232 17.330732 0.52220839
12.21664 14.767378 -1.7880645
14.711689 17.783375 -1.0722728
14.396244 17.41444 -0
10.529535 12.73707 -1.9325707
14.168209 17.150784 -1.5555966
14.468041 17.513735 -0.52741814
14.344927 17.364704 0.52293015
12.213188 14.784209 -1.7890697
14.714621 17.82489 -1.0738463
14.404177 17.448828 -0
10.521624 12.754674 -1.9335688
14.159554 17.1647 -1.5559617
14.47338 17.54513 -0.52805918
14.353576 17.399899 0.52368814
12.206234 14.807344 -1.7903215
14.723742 17.861324 -1.0754217
14.412117 17.483294 -0
10.51913 12.769802 -1.9347485
14.152126 17.180115 -1.5564631
14.473986 17.583342 -0.5287528
14.355698 17.439644 0.52443159
12.203532 14.825141 -1.7914428
14.731827 17.896574 -1.0769246
14.413852 17.522753 -0
10.51593 12.784095 -1.9358011
14.138581 17.200344 -1.5569535
14.481397 17.617395 -0.52947265
14.364845 17.475605 0.52521133
12.197011 14.848883 -1.7927672
14.734403 17.937952 -1.0784855
14.421302 17.556778 -0
10.508297 12.802117 -1.9368628
14.131243 17.215902 -1.5574687
14.488939 17.65168 -0.53019893
14.366251 17.514673 0.52593303
12.193006 14.865152 -1.7937033
14.744346 17.975628 -1.0801315
14.422966 17.59634 -0
10.504965 12.816292 -1.9378973
14.125075 17.232906 -1.5581144
14.490837 17.691738 -0.53094602
14.374386 17.549562 0.52667922
12.190536 14.88332 -1.7948681
14.747386 18.017782 -1.0817358
14.430372 17.630466 -0
10.497875 12.835033 -1.9390678
14.112325 17.254173 -1.5587002
14.498954 17.726879 -0.53169674
14.381217 17.58293 0.52737916
12.180629 14.903033 -1.7957064
14.758065 18.056534 -1.0834436
14.438899 17.666035 -0
10.493011 12.847378 -1.9398255
14.10666 17.271839 -1.5594059
14.501668 17.768131 -0.53247827
14.38223 17.62179 0.52809274
12.177256 14.920152 -1.7967441
14.766994 18.093224 -1.0850263
14.440068 17.705271 -0
10.489066 12.860864 -1.9407556
14.096616 17.296478 -1.560297
14.50981 17.803469 -0.53323352
14.389365 17.655682 0.52880716
12.168084 14.940826 -1.7976984
14.76965 18.135212 -1.086616
14.448524 17.740911 -0
10.479021 12.876054 -1.9413909
14.094991 17.31916 -1.561455
14.518898 17.840036 -0.53402507
14.390456 17.694826 0.52952796
12.165111 14.958491 -1.7988015
14.77705 18.170191 -1.0880935
14.450312 17.781101 -0
10.474728 12.889147 -1.9422619
14.093193 17.341667 -1.5625968
14.521306 17.88121 -0.53480208
14.398287 17.729727 0.53027147
12.161775 14.975736 -1.7998538
14.779284 18.211864 -1.0896617
14.458497 17.816572 -0
10.464841 12.90457 -1.9429334
14.090219 17.375151 -1.5642835
14.529702 17.917095 -0.53557187
14.40642 17.765072 0.53102762
12.156615 15.001457 -1.8014141
14.784842 18.244732 -1.0910105
14.466689 17.852125 -0
10.462348 12.919923 -1.944145
14.090175 17.399914 -1.5656269
14.538571 17.953638 -0.53636068
14.407928 17.805012 0.53177017
12.155412 15.021399 -1.8027893
14.785774 18.271946 -1.0920203
14.468471 17.892597 -0
10.458669 12.93383 -1.9451386
14.084607 17.430328 -1.5670356
14.54141 17.995644 -0.53716034
14.416284 17.840792 0.53253812
12.156679 15.044433 -1.8045347
14.768618 18.289877 -1.092167
14.476589 17.928223 -0
10.452209 12.953562 -1.9464588
14.084695 17.455351 -1.5684007
14.550571 18.032719 -0.53796363
14.418502 17.881811 0.53331155
12.152563 15.071597 -1.8062656
14.769022 18.316526 -1.0931424
14.484299 17.963411 -0
10.44769 12.966475 -1.9473027
14.084705 17.480322 -1.5697604
14.553109 18.07456 -0.53875697
14.427713 17.918823 0.53411484
12.151771 15.092165 -1.8077134
14.740416 18.320278 -1.0924444
14.486489 18.004683 -0
10.444813 12.981444 -1.9484552
14.07777 17.509212 -1.5710303
14.562804 18.112473 -0.53958386
14.436856 17.955826 0.53491724
12.145095 15.116252 -1.809074
14.70482 18.302183 -1.0907531
14.493758 18.039488 -0
19.101898 23.79196 1.4175292
10.434856 12.996913 -1.9491358
14.076741 17.532984 -1.572281
14.569226 18.146387 -0.54029107
14.44158 18.000267 0.53579038
12.139796 15.13128 -1.8098578
14.821237 18.47348 -1.1003449
14.495652 18.080591 -0
19.08709 23.807543 1.4176633
10.430222 13.009734 -1.9499661
14.070652 17.563042 -1.5736543
14.56445 18.179403 -0.54081964
14.452523 18.039694 0.53666347
12.129862 15.14054 -1.8099521
14.844389 18.542084 -1.1035047
14.502508 18.115042 -0
19.073782 23.825006 1.4179099
10.420252 13.025224 -1.9506512
14.069318 17.586523 -1.5748777
14.564489 18.205484 -0.54129297
14.453083 18.079161 0.53738701
12.107637 15.145275 -1.8090014
14.848155 18.573351 -1.1047482
14.507712 18.147495 -0
10.415588 13.038043 -1.9514815
14.06713 17.608976 -1.5760086
14.553895 18.231348 -0.54160845
14.462191 18.11647 0.53819579
12.087427 15.141657 -1.8075609
14.842251 18.605881 -1.1057581
14.501173 18.178312 -0
10.409023 13.048496 -1.9519578
14.0609 17.639025 -1.5773791
14.796418 18.561714 -0.55111581
14.466238 18.147511 0.53881776
12.052518 15.130395 -1.8047088
14.851114 18.643677 -1.1073878
14.498749 18.201326 -0
10.400042 13.065278 -1.9528381
14.059939 17.663105 -1.5786544
14.796006 18.587805 -0.55158365
14.462639 18.182026 0.53939259
12.022582 15.114455 -1.801806
14.858354 18.679508 -1.1088997
14.482816 18.220444 -0
10.394539 13.077091 -1.9535186
14.054855 17.682037 -1.5794691
14.794458 18.625856 -0.55225283
14.464272 18.210161 0.53992748
11.988441 15.09315 -1.7982681
14.861345 18.72348 -1.1105857
10.385829 13.094261 -1.9544578
14.044564 17.707127 -1.5803956
14.796667 18.655365 -0.55282128
14.463058 18.234756 0.54035729
11.952601 15.080428 -1.7952601
14.869575 18.760731 -1.1121792
10.382346 13.108656 -1.9555241
14.038416 17.724777 -1.5810958
14.80051 18.700399 -0.55369622
14.450644 18.258345 0.54060751
11.924257 15.066261 -1.7925822
14.879212 18.799839 -1.1138815
10.379835 13.1243 -1.9567763
11.919243 15.081551 -1.3441991
14.808978 18.737965 -0.55450225
11.89618 15.063174 -1.7907315
14.882177 18.844103 -1.1155801
10.370676 13.14098 -1.9576429
11.908614 15.089746 -1.3441882
14.816941 18.774969 -0.55529106
11.876509 15.059871 -1.7893527
14.891418 18.882891 -1.1172606
22.59952 28.677643 -0
10.367839 13.156261 -1.9588407
11.890962 15.089026 -1.3433844
14.819283 18.818426 -0.55611706
11.862021 15.063116 -1.788754
14.893642 18.926439 -1.1189139
22.573334 28.685587 -0
10.358253 13.172449 -1.9596347
11.87395 15.099939 -1.3432481
14.827239 18.855597 -0.55690944
11.842252 15.070454 -1.7881516
14.902895 18.965427 -1.1206034
22.61014 28.77367 -0
10.353583 13.185444 -1.9604923
11.843863 15.083339 -1.3410355
14.829905 18.899685 -0.55775267
11.82988 15.076361 -1.7878722
14.911788 19.00404 -1.1222695
10.350265 13.20018 -1.9616083
11.798308 15.05776 -1.3376621
14.839516 18.939144 -0.55861127
11.811687 15.085678 -1.7875093
14.914371 19.04837 -1.1239645
10.340858 13.216664 -1.9624478
11.749134 15.016582 -1.3332751
14.847828 18.977028 -0.55942273
11.798661 15.090734 -1.787132
14.92342 19.087366 -1.1256505
10.337004 13.23076 -1.9634686
14.851162 19.022301 -0.56029862
11.786448 15.096822 -1.786878
14.925961 19.131872 -1.1273527
19.362043 24.817976 -0
10.332776 13.244397 -1.9644214
11.76862 15.095702 -1.3384742
14.860184 19.061275 -0.56114089
11.768648 15.106609 -1.7865767
14.934711 19.17067 -1.1290243
19.329517 24.811981 -0
19.242462 24.718027 1.4553308
10.323286 13.260843 -1.9652562
11.741418 15.082514 -1.3365777
14.869135 19.100243 -0.56198227
11.75817 15.114914 -1.7865877
14.943726 19.209888 -1.1307192
19.317188 24.849789 -0
19.243521 24.755022 1.4567176
10.318574 13.273897 -1.9661227
14.870446 19.14325 -0.56278926
19.276289 24.815046 0.72953337
11.748736 15.124563 -1.7867582
14.945518 19.253761 -1.1323798
19.311764 24.878635 -0
19.222286 24.763365 1.4564185
10.310256 13.291901 -1.9671891
11.734207 15.127646 -1.3387603
14.879769 19.18288 -0.56364876
19.258497 24.845804 0.72984439
11.737538 15.142852 -1.7874658
14.955356 19.29423 -1.1341455
10.305465 13.304893 -1.9680465
11.71312 15.122249 -1.3375586
14.880181 19.224949 -0.56442666
19.22114 24.833395 0.72908551
11.735391 15.161931 -1.7887503
14.956986 19.338121 -1.1358043
19.209116 24.835768 1.4587027
10.301491 13.318958 -1.9690628
11.702139 15.140796 -1.3381145
14.889563 19.264841 -0.56529254
19.227776 24.877831 0.72999579
11.738336 15.198591 -1.7916242
14.967453 19.379595 -1.1376262
19.183432 24.856302 1.4587281
10.293748 13.337786 -1.9702516
11.692447 15.150104 -1.3382152
14.897799 19.303333 -0.56611669
11.737579 15.219563 -1.79313
14.976653 19.419518 -1.1393557
22.620871 29.352594 -0
19.158524 24.85989 1.4581535
10.28846 13.350193 -1.9710228
11.686608 15.175367 -1.3393651
14.900855 19.349152 -0.56700253
11.747834 15.254871 -1.7963232
14.980654 19.466825 -1.1412102
22.611809 29.383238 -0
19.134405 24.864477 1.4576386
10.280293 13.368526 -1.972139
14.90934 19.388155 -0.56784028
11.745456 15.284867 -1.798406
14.989884 19.506981 -1.1429505
22.61414 29.428753 -0
19.058451 24.81951 1.4538316
10.275494 13.381608 -1.9730102
14.121828 18.390627 -1.6213993
14.911636 19.43322 -0.56870252
11.963573 15.591228 -1.833469
14.994403 19.555212 -1.1448559
22.611475 29.489151 -0
19.028654 24.816551 1.4528798
10.271956 13.396352 -1.9741263
14.135244 18.448059 -1.6251569
14.920321 19.472672 -0.56955212
11.981854 15.648958 -1.8387814
15.002523 19.594118 -1.14652
22.605131 29.523539 -0
19.034832 24.860533 1.4546764
10.261529 13.411816 -1.9748205
14.131265 18.469559 -1.6261815
14.930121 19.513664 -0.57044607
11.996818 15.691183 -1.8427583
15.013299 19.636578 -1.1483909
19.037214 24.91766 1.4568518
10.25784 13.426407 -1.9759139
14.133153 18.498774 -1.6278845
14.932381 19.559025 -0.57131469
12.014347 15.736868 -1.8471379
15.014359 19.680643 -1.1500479
19.03508 24.950954 1.458021
10.247726 13.442325 -1.9766762
14.126483 18.530235 -1.6293504
14.943582 19.602055 -0.5722667
12.008513 15.763425 -1.8487781
15.023387 19.721012 -1.1517937
19.004709 24.965317 1.4576966
10.24311 13.455743 -1.9775972
14.137218 18.571192 -1.6320835
14.946571 19.648619 -0.57316881
12.010127 15.788397 -1.850723
15.031964 19.760874 -1.1535087
10.238597 13.469315 -1.9785409
14.139116 18.6141 -1.6345522
14.956472 19.690145 -0.57407546
12.003111 15.813512 -1.8521926
15.034736 19.807529 -1.1553124
10.228425 13.485223 -1.9793031
14.147571 18.65225 -1.6370345
14.965355 19.730421 -0.57494497
11.993266 15.823468 -1.8523777
15.043555 19.847906 -1.1570545
10.222663 13.497185 -1.980011
14.160237 18.696043 -1.6400101
14.9683 19.777283 -0.57585347
11.986723 15.837792 -1.8530743
15.047406 19.896235 -1.1589526
10.210745 13.510823 -1.980442
14.159471 18.735764 -1.6421927
14.976457 19.816797 -0.57669938
11.967388 15.846704 -1.8526498
15.057262 19.938185 -1.1607836
10.203367 13.520674 -1.9808413
14.169414 18.776157 -1.6448659
14.980103 19.864834 -0.57764053
11.955456 15.853907 -1.8525156
15.067397 19.980593 -1.16264
10.195116 13.529374 -1.9810727
14.168308 18.815639 -1.6470239
14.989981 19.906826 -0.57855713
11.934007 15.859984 -1.8517644
15.070935 20.028881 -1.1645308
19.437147 25.831465 -0
10.183111 13.542927 -1.9814947
14.176011 18.853245 -1.649449
15.000089 19.949217 -0.5794847
11.920104 15.86455 -1.8513254
15.079803 20.069815 -1.1662983
19.432789 25.863234 -0
10.175588 13.552608 -1.9818712
14.180979 18.887287 -1.6515608
15.003165 19.99687 -0.58041221
11.902327 15.863938 -1.850284
15.083214 20.118189 -1.168191
19.422543 25.906042 -0
10.170405 13.56542 -1.9827061
14.181729 18.929539 -1.6539559
15.012943 20.039032 -0.58133155
11.883703 15.873716 -1.8499719
15.092059 20.159294 -1.1699657
19.39888 25.912153 -0
10.160424 13.581717 -1.9835318
14.186297 18.963211 -1.6560323
15.021618 20.079807 -0.58221012
19.340374 25.871632 0.74994713
11.869079 15.877274 -1.8494203
15.102209 20.202234 -1.1718457
10.155886 13.595428 -1.9844981
14.188156 19.00716 -1.6585718
15.023779 20.126604 -0.58311045
19.325415 25.889288 0.75006771
11.857526 15.884933 -1.8493478
15.104516 20.249504 -1.1736693
10.150037 13.617316 -1.9861406
14.196284 19.045774 -1.6610761
15.032689 20.167896 -0.58400261
19.32036 25.93914 0.75092542
11.838863 15.894628 -1.8490322
15.115409 20.293653 -1.1756164
19.286283 25.912264 1.5007138
10.145647 13.631278 -1.9871434
14.207391 19.08847 -1.6639345
15.035334 20.21559 -0.58492744
11.832105 15.908725 -1.8497107
15.117378 20.340727 -1.1774256
19.251057 25.902672 1.4993795
10.143441 13.648197 -1.9885771
14.213205 19.138094 -1.6669618
15.044617 20.257589 -0.58583862
11.817664 15.924105 -1.850059
15.12787 20.384552 -1.1793509
19.234056 25.936483 1.50017
10.134413 13.665917 -1.9896115
14.225862 19.1831 -1.6700163
15.055756 20.302185 -0.58682418
11.811986 15.939694 -1.8509117
15.137193 20.426899 -1.1811891
10.130296 13.680317 -1.9906778
14.230125 19.230907 -1.6728802
15.058367 20.350212 -0.58775628
11.805412 15.954097 -1.8516265
15.139897 20.475338 -1.1830727
10.118685 13.6946 -1.9912132
14.2424 19.275625 -1.6759048
15.068964 20.394295 -0.58872551
11.794613 15.974461 -1.8525555
15.149588 20.518393 -1.1849489
10.11488 13.709466 -1.9923475
14.250594 19.314915 -1.6784552
15.071423 20.442377 -0.58965755
11.782811 15.981814 -1.8524538
15.160383 20.56304 -1.1869159
10.1106 13.723708 -1.993391
14.259538 19.369461 -1.6818967
15.081388 20.485821 -0.59060681
11.766276 15.994426 -1.8524865
15.163398 20.612286 -1.1888412
10.101209 13.741072 -1.9943756
14.271331 19.413853 -1.6848859
15.090398 20.528061 -0.59152073
11.753518 16.000473 -1.8522362
15.173906 20.656767 -1.1907954
10.098294 13.757222 -1.9956958
14.28413 19.459717 -1.6880004
15.093352 20.5772 -0.5924809
11.738688 16.003689 -1.8516592
15.17681 20.706131 -1.1927243
10.091311 13.777931 -1.9971659
14.292457 19.513866 -1.6913983
15.103351 20.621002 -0.59343839
11.72036 16.013838 -1.8514124
15.187241 20.750729 -1.1946822
22.581764 30.854063 -0
10.087117 13.792395 -1.9982412
14.306709 19.56196 -1.6947008
15.106358 20.670481 -0.59440666
11.706837 16.018814 -1.8510424
15.196924 20.794405 -1.1965857
22.586761 30.928799 -0
10.085814 13.810839 -1.9998927
14.288881 19.580584 -1.6950169
15.11743 20.715973 -0.5954113
11.689712 16.030594 -1.8509879
15.200131 20.84458 -1.1985563
22.571033 30.952608 -0
10.07795 13.830455 -2.001204
14.329618 19.665224 -1.7014775
15.128123 20.761051 -0.59640318
11.675953 16.035229 -1.8505815
15.210864 20.889915 -1.2005522
10.077445 13.850067 -2.0030234
14.354425 19.728191 -1.706058
15.13113 20.81093 -0.59738058
11.665304 16.044132 -1.8506685
15.214713 20.941254 -1.2025862
19.549923 26.908157 -0
10.069706 13.869938 -2.0043709
14.362719 19.783102 -1.709505
15.141515 20.855808 -0.59836519
11.64708 16.054386 -1.8504436
15.225501 20.986897 -1.2045966
19.523518 26.911301 -0
10.068446 13.888587 -2.0060496
14.358212 19.805964 -1.7106141
15.143447 20.904482 -0.59930634
11.637171 16.06431 -1.8506504
15.236393 21.032787 -1.2066199
19.500799 26.939295 -0
10.066483 13.906298 -2.0075922
14.352971 19.842426 -1.7124642
15.152926 20.948336 -0.60026014
19.448677 26.887043 0.77042973
11.627184 16.074131 -1.8508464
15.239252 21.08317 -1.2085941
19.485123 26.957239 -0
10.060229 13.928344 -2.0092528
14.374366 19.901247 -1.7166741
15.161485 20.991009 -0.60117954
19.440348 26.934879 0.77121675
11.614305 16.091785 -1.8514777
15.249056 21.127785 -1.210541
10.057878 13.94559 -2.0107274
14.383195 19.942789 -1.7193907
15.16308 21.039602 -0.60211611
19.41946 26.945562 0.7711342
11.606615 16.104813 -1.8520439
15.251207 21.177464 -1.2124717
10.055804 13.96325 -2.0122609
14.411148 20.025715 -1.7252383
15.171861 21.0828 -0.6030491
19.39793 26.955341 0.77102631
11.595467 16.124916 -1.8529582
15.261456 21.222923 -1.2144641
22.58795 31.41131 -0
19.364172 26.948092 1.5416952
10.050164 13.986281 -2.0140622
14.425952 20.075832 -1.728688
15.181795 21.127701 -0.60403007
11.589968 16.141031 -1.8538799
15.272079 21.269009 -1.2164909
22.591593 31.485886 -0
19.340189 26.954407 1.5412837
10.044559 13.999094 -2.0148971
14.472652 20.185396 -1.7368163
15.184237 21.177864 -0.60500932
11.585926 16.159203 -1.8550375
15.275434 21.320768 -1.2185358
19.319662 26.965525 1.5411477
10.038341 14.021404 -2.0165939
14.489407 20.238586 -1.7405221
15.19591 21.22542 -0.60606468
11.576195 16.181385 -1.8561913
15.287585 21.369225 -1.2206948
10.032475 14.0339 -2.0173833
14.471988 20.244101 -1.740127
15.200166 21.278404 -0.60712278
11.576063 16.205097 -1.8579838
15.29161 21.422222 -1.2228068
10.029099 14.049901 -2.0186765
14.460828 20.273329 -1.7413368
15.211432 21.325638 -0.60816723
11.568387 16.230259 -1.8594788
15.302922 21.469751 -1.2249098
10.01859 14.066305 -2.0195248
14.655395 20.576473 -1.7664955
15.222661 21.372927 -0.60921264
11.570765 16.257597 -1.861685
15.314335 21.517529 -1.2270253
10.015177 14.082307 -2.020818
14.866612 20.919352 -1.7945943
15.225924 21.424953 -0.61024082
11.573269 16.28517 -1.8639166
15.31782 21.570204 -1.2291137
10.004375 14.098356 -2.0216165
14.898526 20.995287 -1.8002157
15.235575 21.470261 -0.61122817
11.569099 16.315458 -1.8659958
15.328691 21.617466 -1.2311968
10.000587 14.113884 -2.0228415
14.959787 21.112831 -1.8093984
15.238583 21.522219 -0.61225271
11.570854 16.342102 -1.8681185
15.339165 21.664276 -1.2332525
9.9947872 14.126595 -2.0236628
14.980973 21.189735 -1.8146439
15.249119 21.569014 -0.61328089
11.566482 16.372252 -1.8701795
15.341866 21.716276 -1.2352973
9.9864998 14.146277 -2.0249832
15.195223 21.524643 -1.8424156
15.26016 21.616629 -0.61433172
11.564196 16.39329 -1.87166
15.352501 21.763554 -1.2373767
9.9817181 14.160476 -2.0260174
15.180192 21.535246 -1.8424156
15.263601 21.669634 -0.61538345
11.561461 16.413729 -1.8730716
15.35544 21.816187 -1.2394543
9.9724188 14.178791 -2.0271428
15.383758 21.872637 -1.8699013
15.274711 21.717592 -0.61644244
11.55281 16.437983 -1.8744576
15.365626 21.863071 -1.2415082
9.9684048 14.194132 -2.0283406
15.382257 21.902983 -1.8715771
15.27852 21.771423 -0.61751592
11.546089 16.452826 -1.8752306
15.376988 21.911739 -1.2436619
19.613419 27.969282 -0
9.9628592 14.207314 -2.0292299
15.406719 21.986732 -1.8773538
15.288955 21.818672 -0.61855316
11.535011 16.4737 -1.876232
15.379571 21.9643 -1.2457304
19.591492 27.979544 -0
9.9529133 14.224796 -2.030237
15.448197 22.078709 -1.8842858
15.300629 21.867802 -0.61964297
11.52763 16.487646 -1.8769033
15.390326 22.012352 -1.247846
19.558176 27.994314 -0
9.9474468 14.238134 -2.0311491
15.304568 21.92227 -0.62073189
19.526951 27.970411 0.79198587
11.519011 16.499836 -1.877375
15.393788 22.066475 -1.2499996
9.9385881 14.257233 -2.0323877
15.534986 22.28545 -1.8996131
15.316327 21.971777 -0.62183076
19.51709 27.99791 0.79237843
11.504372 16.515688 -1.8778068
15.405522 22.116182 -1.2522058
9.9340849 14.272001 -2.0335038
15.537969 22.322933 -1.901883
15.328469 22.021952 -0.62294781
19.485085 28.014484 0.79226965
11.495393 16.527386 -1.8782241
15.416838 22.165405 -1.2543831
9.9309607 14.288777 -2.0349057
15.528521 22.359259 -1.9035915
15.332867 22.077541 -0.62406576
19.458549 28.018042 0.79198587
11.484983 16.537037 -1.8784091
15.42136 22.221512 -1.2566438
19.42268 27.987242 1.5827001
9.9229565 14.309212 -2.036335
15.548836 22.421906 -1.9080003
15.344154 22.126749 -0.62515372
11.471182 16.554138 -1.8789861
15.433002 22.271465 -1.258859
19.401358 28.019115 1.5833528
9.9181986 14.323696 -2.0374103
15.552633 22.460852 -1.91039
15.347839 22.181631 -0.62624991
11.461414 16.564734 -1.8792801
15.437365 22.327671 -1.2611215
19.35585 27.995132 1.5812336
9.9130287 14.337605 -2.038404
15.560312 22.522297 -1.9142294
15.358144 22.229675 -0.62730348
11.447619 16.581879 -1.8798642
15.448952 22.377811 -1.263344
9.9030323 14.35526 -2.0394385
15.571425 22.572063 -1.9175346
15.368344 22.277679 -0.62835521
11.43785 16.592493 -1.8801618
15.461385 22.429296 -1.265641
9.8965073 14.36725 -2.0401597
15.578733 22.633327 -1.9213521
15.371599 22.332396 -0.62944412
11.428843 16.604223 -1.8805864
15.466392 22.486916 -1.2679777
9.8862696 14.384608 -2.0411534
15.586876 22.679041 -1.9243087
15.382061 22.381033 -0.63051218
11.412572 16.617817 -1.8807714
15.479075 22.539042 -1.2703072
9.8814049 14.399056 -2.0422242
15.597586 22.728601 -1.9275894
15.386376 22.437613 -0.63165188
11.403255 16.629116 -1.8811488
15.483387 22.595989 -1.2726023
9.8763065 14.413185 -2.0432496
15.597288 22.779261 -1.9304996
15.398265 22.488596 -0.63278431
11.387834 16.64397 -1.881479
15.495944 22.648207 -1.2749337
9.8655434 14.429861 -2.044148
15.606212 22.826462 -1.9335759
15.411059 22.541023 -0.63395661
11.379612 16.656893 -1.8820415
15.508194 22.7001 -1.277245
9.8604984 14.444115 -2.0451915
15.613802 22.87182 -1.9364942
15.415835 22.598766 -0.63512623
11.372189 16.671003 -1.8827381
15.511776 22.75647 -1.279502
9.8482504 14.458666 -2.0457904
15.61746 22.928705 -1.9399248
15.427425 22.649706 -0.63625503
11.359189 16.689463 -1.8834783
15.524097 22.808744 -1.2818315
9.8426266 14.472114 -2.0467205
15.62722 22.977495 -1.9431293
15.431882 22.707321 -0.63741916
11.35193 16.703854 -1.8842077
15.536595 22.861403 -1.284181
19.695381 29.00264 -0
9.8364878 14.484823 -2.0475461
15.63131 23.035347 -1.9466362
15.443129 22.75803 -0.63853985
11.33764 16.720465 -1.8847411
15.539954 22.917933 -1.2864417
19.676071 29.017773 -0
9.8263416 14.502536 -2.0485942
15.644732 23.089804 -1.9503148
15.454706 22.809347 -0.63967681
11.32821 16.731693 -1.8851148
15.552062 22.970295 -1.2887712
19.651911 29.047583 -0
9.8215189 14.517234 -2.0497015
15.655925 23.141096 -1.9537235
15.458413 22.866348 -0.64082104
19.62001 29.022251 0.81333798
11.317811 16.741499 -1.8853289
15.555586 23.027407 -1.2910608
9.8106747 14.533975 -2.0506134
15.661508 23.201662 -1.9574511
15.470566 22.918793 -0.64198792
19.599394 29.035425 0.81332344
11.301796 16.755598 -1.8855829
15.566999 23.079021 -1.293345
9.8057079 14.548509 -2.0516977
15.673597 23.254564 -1.9609907
15.473411 22.974854 -0.64310402
19.55554 29.03598 0.81276494
11.291508 16.765581 -1.8858187
15.577411 23.129272 -1.2955512
9.799469 14.561177 -2.0525188
15.678245 23.314102 -1.9646257
15.485589 23.027617 -0.64427817
19.567343 29.097326 0.81409955
11.276873 16.781755 -1.8863087
15.581191 23.187254 -1.2978843
19.496 29.013103 1.6239806
9.789731 14.579645 -2.0536759
15.691159 23.368521 -1.9682879
15.49683 23.079109 -0.64541602
11.267516 16.793144 -1.8867041
15.591741 23.237982 -1.3001142
19.470495 29.040796 1.6243886
9.7842817 14.593534 -2.0546696
15.704353 23.423487 -1.9719937
15.500366 23.136692 -0.64657205
11.260162 16.807533 -1.8874371
15.595725 23.296612 -1.30248
9.7807388 14.610291 -2.056067
15.707765 23.481701 -1.9755088
15.513044 23.190613 -0.64777613
11.245884 16.824295 -1.887996
15.607256 23.349083 -1.3048041
9.7697001 14.626913 -2.0569654
15.720889 23.536861 -1.9792255
15.524398 23.24268 -0.64892757
11.238454 16.838612 -1.8887216
15.619978 23.403463 -1.3072332
9.7651262 14.642187 -2.0581541
15.72426 23.595369 -1.9827596
15.529611 23.303282 -0.6501652
11.228896 16.849754 -1.8890917
15.623555 23.461996 -1.3095882
9.7542801 14.659156 -2.0591023
15.736904 23.650105 -1.9864355
15.541051 23.355766 -0.6513266
11.214992 16.86714 -1.8897232
15.636598 23.517155 -1.3120573
9.7485523 14.672749 -2.060055
15.750472 23.706362 -1.9902366
15.544231 23.413673 -0.65248716
11.204246 16.87652 -1.8898973
15.640759 23.576925 -1.3144774
9.743454 14.68731 -2.0611441
15.754704 23.766689 -1.9939152
15.546007 23.45186 -0.65324879
11.188285 16.890839 -1.8901876
15.654183 23.632959 -1.3169919
9.7331648 14.705205 -2.0622239
15.768821 23.824085 -1.9978063
15.5697 23.523247 -0.65493429
11.178292 16.901371 -1.8904924
15.667967 23.689674 -1.3195425
9.7293777 14.721804 -2.0635986
15.774334 23.886726 -2.001673
15.574326 23.583857 -0.65616733
11.167412 16.910566 -1.8906484
15.672486 23.750525 -1.3220171
9.7180347 14.738172 -2.0644653
15.787706 23.94331 -2.0054905
15.596703 23.653637 -0.65780568
11.152436 16.926409 -1.8911129
15.68527 23.806034 -1.3244971
19.799166 30.049826 -0
9.7144642 14.755159 -2.0658944
15.800837 23.999664 -2.0092862
15.580981 23.683725 -0.65818834
11.143395 16.938414 -1.8915846
15.689376 23.866629 -1.3269535
19.762516 30.062675 -0
9.7075701 14.767125 -2.0666203
15.80554 24.06163 -2.0130873
15.593838 23.739346 -0.65943134
11.129173 16.955439 -1.8921833
15.701381 23.921255 -1.3293809
19.738628 30.072056 -0
9.6991014 14.787956 -2.0681131
15.818145 24.117495 -2.0168369
15.61305 23.804792 -0.66094643
11.121277 16.969223 -1.8928546
15.714257 23.977346 -1.3318881
19.719667 30.11186 -0
9.6936216 14.802125 -2.0691476
15.830274 24.17277 -2.0205345
15.644736 23.90766 -0.6633473
19.694437 30.096249 0.83505732
11.114688 16.985022 -1.8937509
15.721065 24.042614 -1.3345983
9.6856279 14.823766 -2.0707538
15.824859 24.219803 -2.0230794
15.665658 23.976147 -0.66494393
19.666351 30.099171 0.83475721
11.099957 17.001341 -1.8942734
15.734162 24.09936 -1.3371382
9.6814032 14.839914 -2.0720649
15.848549 24.293081 -2.0282757
15.672979 24.042297 -0.66632295
19.620447 30.097698 0.83414608
11.092907 17.016481 -1.895097
15.748615 24.158323 -1.3397994
9.6778383 14.857105 -2.0735214
15.854774 24.358326 -2.0323358
15.675641 24.083115 -0.6671508
11.076481 17.030241 -1.8953365
15.754774 24.223181 -1.3424807
19.574041 30.095356 1.6679243
9.6678352 14.875788 -2.0747147
15.879279 24.433266 -2.037663
15.687489 24.138159 -0.66837204
11.068169 17.043482 -1.8959498
15.766486 24.278255 -1.3449225
19.551117 30.129095 1.6686585
9.6634035 14.891711 -2.075994
15.881902 24.47468 -2.0401917
15.69097 24.19894 -0.66959971
11.058002 17.053881 -1.8962474
15.761189 24.32583 -1.346643
9.6519785 14.908271 -2.0768924
15.920367 24.590311 -2.0484397
15.702342 24.253553 -0.67080736
11.044193 17.071722 -1.896944
15.785702 24.400976 -1.3501925
9.6460543 14.921947 -2.0778589
15.920649 24.628418 -2.0506878
15.705837 24.314728 -0.6720441
11.034995 17.083643 -1.8974121
15.799087 24.459091 -1.3527975
9.6404953 14.936207 -2.078907
15.938251 24.712372 -2.0562873
15.717581 24.37022 -0.6732744
11.021523 17.102055 -1.8981742
15.815487 24.540827 -1.3564016
9.6292601 14.953144 -2.0798597
15.946629 24.7633 -2.059598
15.730608 24.427845 -0.67456281
11.010928 17.111837 -1.8984064
15.807915 24.566727 -1.3572228
19.851732 30.851135 -0
9.6242523 14.968315 -2.0810349
15.960949 24.823591 -2.0636854
15.734655 24.490433 -0.67583579
11.00167 17.123709 -1.8988708
15.863529 24.709982 -1.3642186
19.833956 30.894554 -0
9.6183701 14.982148 -2.0820239
15.965243 24.887522 -2.0676091
15.748235 24.549238 -0.67715496
10.984824 17.136923 -1.8990595
15.884178 24.780182 -1.3674817
19.903152 31.050001 -0
9.6072788 14.9994 -2.0830221
15.980021 24.948866 -2.0717781
15.762118 24.608665 -0.67849052
19.739595 30.842216 0.85016698
10.973235 17.145178 -1.8991249
15.878233 24.809013 -1.3684607
20.075191 31.390696 -0
9.6006718 15.01215 -2.0838616
15.985675 25.015333 -2.0759063
15.767462 24.673859 -0.6798324
19.765038 30.929502 0.85219246
10.964089 17.157259 -1.8996147
15.880973 24.870617 -1.3709406
20.884132 32.705887 -0
9.5902891 15.030569 -2.0850229
15.999332 25.07527 -2.0799527
15.815434 24.78705 -0.68264669
19.924082 31.250462 0.8604604
10.947852 17.171453 -1.8999158
15.909798 24.954149 -1.3749325
20.650583 32.389961 -0
9.5851717 15.045703 -2.0861936
16.006319 25.124886 -2.0831409
15.812746 24.840164 -0.68365312
20.061117 31.51391 0.86732846
10.939997 17.185587 -1.9006343
15.911929 25.015244 -1.3773799
20.68959 32.526234 -0
9.5811625 15.062605 -2.0876091
16.014803 25.196388 -2.0876777
15.830278 24.906073 -0.68516272
20.765591 32.670891 0.89877182
10.924393 17.200809 -1.9010516
15.936824 25.093046 -1.3810509
20.781601 32.721306 -0
9.5734911 15.085405 -2.0893786
16.035732 25.268267 -2.092705
15.835486 24.95273 -0.68614191
20.241968 31.920856 0.87755483
10.916485 17.214903 -1.9017664
15.943438 25.142227 -1.3831447
20.748577 32.745029 -0
9.5708065 15.104473 -2.0910938
16.058603 25.362974 -2.0991549
15.840369 25.018295 -0.68748832
19.986603 31.566858 0.86743909
10.906524 17.225773 -1.9021256
15.947142 25.206394 -1.3857553
20.72377 32.756435 -0
19.661837 31.077923 1.7085503
9.5621157 15.125769 -2.0926545
16.046265 25.382677 -2.0998578
15.855453 25.080843 -0.68890274
20.363293 32.236446 0.88525248
10.891532 17.24202 -1.9026591
15.95611 25.259583 -1.3880666
20.663721 32.712044 -0
19.662085 31.150465 1.7114056
9.5585327 15.143497 -2.0941834
16.058491 25.441324 -2.1037817
15.863867 25.15243 -0.69041234
20.65365 32.746712 0.89886886
10.882293 17.254061 -1.9031489
15.974691 25.328144 -1.391221
19.655312 31.187952 1.7127109
9.55404 15.159817 -2.0955174
16.068594 25.516489 -2.1086047
15.867529 25.197205 -0.69133717
20.646954 32.7868 0.89957333
10.867782 17.271109 -1.9037731
15.990242 25.411736 -1.3948921
9.5443964 15.179733 -2.0968876
16.106405 25.616177 -2.1159127
15.88548 25.264809 -0.69288754
20.459328 32.564434 0.8928839
10.860252 17.285904 -1.9045677
15.992114 25.454117 -1.3966053
9.5391808 15.194969 -2.0980718
16.119596 25.676918 -2.1200001
15.884228 25.321625 -0.69398916
19.914589 31.746571 0.87007749
10.852688 17.300663 -1.9053587
15.986899 25.50507 -1.3984815
9.5297709 15.215341 -2.0995054
16.097105 25.700819 -2.1205804
15.900438 25.38682 -0.69547158
10.839455 17.319834 -1.9062186
16.017218 25.593128 -1.4026964
9.5236921 15.229259 -2.1005082
16.144178 25.816025 -2.1291556
15.905817 25.454624 -0.69687235
19.820969 31.720177 0.86840469
10.830865 17.333004 -1.9068356
16.020748 25.638552 -1.4045727
9.5189142 15.245284 -2.1018014
16.119982 25.837479 -2.1295316
15.929592 25.532318 -0.69869477
19.826374 31.778172 0.86961329
10.818016 17.352852 -1.9077717
16.029501 25.712435 -1.4076998
20.446302 32.797295 -0
9.5075808 15.262687 -2.1028268
16.166779 25.952814 -2.1381068
15.937779 25.585197 -0.69983721
19.783201 31.783035 0.86917895
10.809496 17.366179 -1.9084067
16.043404 25.774801 -1.4105008
20.389046 32.781868 -0
9.5032549 15.2795 -2.1042287
16.165943 25.991888 -2.1403956
15.935096 25.64068 -0.70089799
10.804185 17.384687 -1.9096115
16.049133 25.844294 -1.4133831
9.4916468 15.296532 -2.1052041
16.179705 26.07486 -2.1458318
15.958578 25.718496 -0.7027204
10.789232 17.401247 -1.9101884
16.070875 25.919662 -1.4168911
9.4872179 15.313247 -2.1065927
16.203671 26.154221 -2.1514313
15.964628 25.788488 -0.70417559
10.782752 17.417936 -1.9111935
16.067255 25.954266 -1.4181691
9.4814234 15.327785 -2.1076815
16.211922 26.228851 -2.1561725
15.979883 25.853441 -0.70564443
10.773412 17.430025 -1.9116943
16.0902 26.05225 -1.4226016
9.4709501 15.346752 -2.1089246
16.217857 26.279459 -2.1594017
15.991055 25.911947 -0.70693642
10.759134 17.447754 -1.9124018
16.093821 26.098848 -1.4245322
19.951172 32.354195 -0
9.4652815 15.361552 -2.11005
16.228024 26.337053 -2.1632028
15.999696 25.966494 -0.70811963
10.749989 17.460196 -1.9129425
16.090939 26.134998 -1.4258919
19.947605 32.399017 -0
9.460247 15.377409 -2.1113203
16.243629 26.403637 -2.1677396
16.013485 26.029545 -0.70953405
10.743235 17.476542 -1.9139113
16.118361 26.22052 -1.4299436
19.922888 32.434902 -0
19.771122 32.187824 1.7549957
9.4553576 15.393531 -2.112627
16.249908 26.475929 -2.1722765
16.019312 26.100218 -0.71100283
19.864731 32.365547 0.88167834
10.733229 17.487617 -1.9143032
16.122105 26.288279 -1.4327173
19.726921 32.166195 1.753065
9.4446249 15.412224 -2.1138339
16.262573 26.538101 -2.1764455
16.032917 26.16334 -0.71241724
19.855299 32.4263 0.88276637
10.719357 17.506113 -1.9150978
16.133703 26.348446 -1.4353821
9.4398355 15.428576 -2.1151724
16.279428 26.607285 -2.1811869
16.04126 26.238588 -0.71400845
19.842434 32.456146 0.88320154
10.709892 17.518105 -1.9155914
16.143326 26.426262 -1.4386997
9.4344625 15.444003 -2.1163838
16.277138 26.666225 -2.1846201
16.046133 26.287781 -0.71504205
10.693972 17.533295 -1.9160268
16.159924 26.494991 -1.4418268
9.423171 15.461892 -2.1174817
16.306274 26.755945 -2.1910372
16.073809 26.374508 -0.71709567
10.686139 17.547998 -1.9168178
16.15847 26.534262 -1.4433497
9.4176378 15.477118 -2.1186659
16.310986 26.805771 -2.1941845
16.072048 26.43387 -0.71825171
10.678876 17.563663 -1.9177141
16.182055 26.63574 -1.447947
9.4074249 15.496855 -2.120018
16.318394 26.881296 -2.1989665
16.076691 26.483141 -0.71928531
10.664774 17.581919 -1.918487
16.188023 26.687532 -1.4501479
9.4044266 15.516325 -2.1217828
16.333555 26.948668 -2.2035444
16.07019 26.535034 -0.72023731
10.659146 17.60034 -1.9196844
16.206682 26.760406 -1.4534926
9.4023294 15.537326 -2.1237566
16.351902 27.042786 -2.2098389
16.087429 26.605396 -0.72184211
10.645637 17.619648 -1.9205734
16.204983 26.820948 -1.4558583
20.040323 33.168842 -0
9.3983259 15.567492 -2.1265333
16.35779 27.095226 -2.2131903
16.111235 26.686829 -0.72374612
10.638939 17.636366 -1.9215858
16.231604 26.907433 -1.4599373
20.038933 33.218914 -0
9.3982906 15.592026 -2.1289878
16.371761 27.161205 -2.2176454
16.124382 26.771931 -0.72559571
10.633125 17.654585 -1.9227614
16.227863 26.965036 -1.4621398
19.995695 33.225857 -0
9.4000473 15.619592 -2.1318552
16.376143 27.232935 -2.2221007
16.139196 26.838903 -0.72710532
10.620661 17.675745 -1.9238536
16.247318 27.040075 -1.4655933
9.3911343 15.641834 -2.1335478
16.388416 27.296478 -2.2263515
16.147291 26.894861 -0.72831577
19.919401 33.20393 0.89897764
10.614741 17.693861 -1.9250184
16.261257 27.106119 -1.4685574
9.3891687 15.663328 -2.1355848
16.389256 27.362766 -2.2303569
16.153431 26.969044 -0.72986615
19.898623 33.221848 0.89908642
10.607002 17.708975 -1.9258566
16.265627 27.177877 -1.4715214
9.3761854 15.67888 -2.1363652
16.423548 27.463495 -2.2376323
16.18601 27.066284 -0.73219174
10.595036 17.731091 -1.927054
16.27457 27.235952 -1.4740504
19.811565 33.181515 1.7954587
9.3694344 15.692451 -2.1373227
16.431639 27.520624 -2.2413518
16.18857 27.135035 -0.73359257
10.586938 17.745665 -1.9278343
16.281425 27.31234 -1.4772609
19.776108 33.174725 1.7943437
9.3629465 15.706486 -2.1383433
16.441696 27.6031 -2.2466652
16.216085 27.224335 -0.73570061
10.576585 17.770578 -1.9293364
16.30127 27.389084 -1.480796
9.3516102 15.724886 -2.139514
16.456779 27.672344 -2.2513657
16.216837 27.268879 -0.73659819
10.569918 17.787621 -1.9303851
16.331478 27.483482 -1.4852828
9.3468695 15.741919 -2.1409433
16.46521 27.730568 -2.2551668
16.222944 27.344286 -0.73817581
10.567856 17.812456 -1.9322792
16.335522 27.555952 -1.488274
9.3374186 15.763582 -2.1425583
