# .PCD v0.7 - Point Cloud Data file format
VERSION 0.7
FIELDS x y z
SIZE 4 4 4
TYPE F F F
COUNT 1 1 1
WIDTH 1608
HEIGHT 1
VIEWPOINT 0 0 0 1 0 0 0
POINTS 1608
DATA ascii
23.393923 9.1209078 -0.58295906
34.120586 13.303058 0.85025948
14.33283 5.5939002 -1.4354199
19.125383 7.4643664 -0.95382446
21.846386 8.5263348 -0
37.972256 14.820032 1.8937589
12.692934 4.9589787 -1.5936012
16.463449 6.4320741 -1.2359785
23.409227 9.1457071 -0.58349943
34.102272 13.337074 0.85015064
14.331421 5.6048827 -1.4356703
19.127073 7.4804168 -0.95416892
21.812311 8.5393677 -0
37.998135 14.876005 1.8958255
12.692829 4.9691539 -1.5940231
16.465052 6.4459529 -1.2364362
23.413818 9.1757736 -0.58385301
34.11095 13.367932 0.85059947
14.32812 5.6151276 -1.4357319
19.123369 7.5020671 -0.95437557
21.775579 8.5425243 -0
37.948509 14.887139 1.8938676
12.693077 4.9794736 -1.5944905
16.463079 6.4650717 -1.2367959
23.422129 9.1978979 -0.58422023
34.081436 13.383821 0.85009623
14.326684 5.6318793 -1.4361782
19.12648 7.5186992 -0.95479256
27.77747 10.919439 -0
34.775505 13.684412 1.7362291
12.691285 4.9941125 -1.5949215
16.463421 6.4784756 -1.237161
23.430637 9.2201252 -0.58459288
34.091927 13.429165 0.85070825
14.32568 5.6430345 -1.4364722
19.125584 7.5337663 -0.95501012
27.757843 10.945297 -0
34.738243 13.697765 1.7348459
12.69173 5.0045228 -1.5954161
16.460035 6.4970574 -1.2374172
23.43717 9.2510509 -0.58499724
34.055298 13.442208 0.85002828
14.327598 5.6553478 -1.43706
19.128571 7.5580921 -0.95555395
27.720768 10.953047 -0
34.757961 13.733585 1.7363088
12.688935 5.0187812 -1.5957246
16.460279 6.5104389 -1.2377769
23.443815 9.2725964 -0.58532453
34.042839 13.478511 0.85006905
14.326622 5.6723099 -1.4375571
19.129929 7.5740733 -0.95588571
27.749071 10.986632 -0
34.75172 13.773211 1.7367167
12.688242 5.0287538 -1.5960785
16.459316 6.5233502 -1.2380466
23.453693 9.3049183 -0.58581418
34.035599 13.503138 0.85012347
14.328949 5.6848059 -1.4381886
19.134209 7.5989556 -0.95649666
27.737551 11.015685 -0
34.739956 13.796619 1.7366097
12.687577 5.0387416 -1.5964369
16.458414 6.5429435 -1.2384934
23.45895 9.325964 -0.58610791
34.01963 13.524299 0.84996027
14.328047 5.7018213 -1.4386965
19.134844 7.6146779 -0.95679396
27.716244 11.029631 -0
34.721073 13.81719 1.7361475
12.684565 5.0529299 -1.5967227
16.459164 6.5565519 -1.2388941
23.469013 9.3489437 -0.58652228
33.988037 13.552974 0.84952503
14.331252 5.7146897 -1.4394186
19.14163 7.6328621 -0.95739943
27.71665 11.063428 -0
34.72887 13.862439 1.7372624
12.683808 5.062892 -1.5970721
16.461313 6.5707278 -1.2394009
23.466717 9.3765144 -0.58670998
33.973671 13.574742 0.84940267
14.332677 5.7268581 -1.4399629
19.140001 7.6554532 -0.95771849
27.711096 11.083646 -0
34.78603 13.913417 1.7406071
12.681885 5.077527 -1.5974985
16.459995 6.5901933 -1.2398205
23.476116 9.3992825 -0.58710891
33.949505 13.592579 0.84903544
14.33335 5.7445407 -1.4406341
19.145954 7.6733427 -0.95828408
27.682138 11.094487 -0
34.728527 13.93262 1.7384589
12.681109 5.0874915 -1.5978479
16.461864 6.60428 -1.2403083
23.474741 9.4272661 -0.58732104
33.943947 13.631616 0.84925306
14.333812 5.7563434 -1.4410841
19.147905 7.6896448 -0.95865029
27.706387 11.137895 -0
34.7845 13.983277 1.7417492
12.681046 5.0977473 -1.5982881
16.459711 6.623435 -1.2406679
23.482681 9.4494982 -0.58768463
33.905621 13.64372 0.84853226
14.333079 5.7734866 -1.4416175
19.151461 7.7143722 -0.95923221
27.692083 11.154607 -0
34.805714 14.020039 1.743301
12.678796 5.1122718 -1.5986782
16.459637 6.6367607 -1.2410113
23.491001 9.4719067 -0.58805817
33.86198 13.667378 0.84779781
14.329586 5.78371 -1.441672
19.153561 7.7307639 -0.95960748
27.647247 11.170211 -0
34.756279 14.042446 1.7415607
12.678138 5.1222992 -1.5990458
16.459551 6.6500893 -1.2413546
23.499569 9.5039835 -0.58852148
33.822021 13.678717 0.84703624
14.329907 5.7954769 -1.442111
19.155401 7.7548437 -0.96010602
27.658451 11.197206 -0
34.866909 14.115467 1.7475975
12.676752 5.1320372 -1.5993226
16.457779 6.6694298 -1.241747
23.506355 9.5258284 -0.58885783
33.789661 13.693085 0.84646505
14.324515 5.8107581 -1.4421799
19.159456 7.772058 -0.960581
27.63814 11.211446 -0
34.887901 14.166506 1.7493922
12.673312 5.1460977 -1.5995675
16.458138 6.6829553 -1.2421257
23.520432 9.5506554 -0.5893774
33.751534 13.718801 0.84586936
14.325104 5.8226461 -1.4426481
19.162449 7.7888551 -0.96100336
27.611729 11.23442 -0
34.651386 14.098654 1.7380255
12.671514 5.1556749 -1.5997944
16.457914 6.70295 -1.242638
23.523005 9.5804071 -0.58969289
33.733704 13.739002 0.84566265
14.323484 5.833643 -1.4428948
19.16382 7.8128066 -0.96148199
27.602795 11.253252 -0
33.905468 13.822759 1.7010959
12.667868 5.1696601 -1.6000167
16.460735 6.7175007 -1.2432048
23.530519 9.6026258 -0.59004921
33.684593 13.760143 0.84479225
14.323165 5.8510075 -1.4434789
19.165623 7.8291497 -0.96184635
27.606323 11.277172 -0
33.989613 13.89859 1.7060468
12.66659 5.1794572 -1.6003116
16.463833 6.7321763 -1.2437934
23.534872 9.6331635 -0.59041101
33.633774 13.766791 0.84375864
14.321956 5.862184 -1.4437692
19.16662 7.8529882 -0.96230865
27.597101 11.307142 -0
33.665154 13.793358 1.6902442
12.665807 5.1894612 -1.6006701
16.465101 6.7528296 -1.2444228
23.541147 9.6549263 -0.5907374
33.572128 13.76893 0.842453
14.320522 5.8791137 -1.4442446
19.165897 7.8683228 -0.96254796
27.597872 11.329966 -0
33.639271 13.810188 1.6894283
12.662411 5.2035623 -1.6009287
16.468493 6.7676549 -1.2450359
23.548849 9.6772966 -0.59110004
33.514458 13.786297 0.84136772
14.320947 5.890974 -1.4447018
19.169422 7.8854127 -0.96300113
27.587076 11.359306 -0
33.669243 13.863711 1.6916618
12.662076 5.2137604 -1.6013461
16.471224 6.7822218 -1.2456
23.552784 9.7077551 -0.59145367
33.474388 13.797146 0.84060341
14.321362 5.9028382 -1.4451591
19.167646 7.9081612 -0.96332747
27.549891 11.366495 -0
33.701218 13.904403 1.6937556
12.658653 5.2278609 -1.6016047
16.471243 6.802412 -1.2461394
23.560186 9.7300539 -0.59180999
33.384617 13.787418 0.83859056
14.319234 5.9195113 -1.445569
19.171064 7.9252377 -0.96377707
27.57498 11.399381 -0
33.623905 13.913726 1.6906013
12.658119 5.237988 -1.6019994
16.471998 6.8161888 -1.2465564
23.564163 9.7605944 -0.5921663
33.329033 13.805335 0.83755696
14.319015 5.931129 -1.4459646
19.174648 7.9423976 -0.96423572
27.568981 11.430719 -0
34.899364 14.470062 1.7552387
12.65704 5.2478938 -1.6023262
16.470791 6.8358994 -1.2470059
23.571157 9.7827759 -0.59251356
33.275059 13.810202 0.83644271
14.315346 5.9471798 -1.4462222
19.177742 7.9672184 -0.96481037
27.537186 11.440073 -0
35.013573 14.54607 1.761493
12.655191 5.2626648 -1.6027889
16.470331 6.8491917 -1.2473329
23.578278 9.8050327 -0.59286445
33.204838 13.821838 0.83504099
14.313345 5.9580693 -1.4464399
19.18255 7.9849238 -0.96533251
27.543257 11.465149 -0
34.999943 14.583404 1.7615745
12.654093 5.272573 -1.6031156
16.471266 6.8630719 -1.2477663
23.58317 9.8360472 -0.59324616
33.169266 13.834208 0.83438909
14.311228 5.968914 -1.4466467
19.185413 8.0096979 -0.9658981
27.530695 11.49376 -0
33.281372 13.894606 1.6755655
12.653882 5.2828555 -1.6035557
16.469858 6.8827357 -1.2482049
23.590891 9.8586073 -0.59361333
33.092041 13.829127 0.83268905
14.308665 5.9854431 -1.4470205
19.191587 8.0280142 -0.96649092
27.523745 11.51343 -0
33.236572 13.916791 1.6740427
12.650919 5.2971826 -1.6038823
16.471519 6.8969412 -1.2486954
23.599888 9.8817263 -0.59401321
33.035439 13.846127 0.83162916
14.307137 5.9965434 -1.447289
19.194435 8.0449543 -0.96691692
27.514374 11.54338 -0
33.171219 13.916653 1.67124
12.648792 5.306674 -1.604082
16.470467 6.9167814 -1.2491641
23.603857 9.9124527 -0.59437406
32.984177 13.851722 0.83058196
14.308111 6.0086989 -1.4478115
19.195461 8.0690269 -0.9673937
27.51009 11.564175 -0
35.070503 14.742279 1.7674482
12.64616 5.3211508 -1.604454
16.472206 6.9310441 -1.2496628
23.609278 9.934124 -0.59468502
32.93618 13.872158 0.82973874
14.305682 6.0253096 -1.4482034
19.195576 8.0848494 -0.96768373
27.477169 11.572916 -0
35.056625 14.779664 1.7675279
12.64255 5.3300233 -1.6044676
16.473289 6.9450397 -1.2501123
23.61203 9.9643993 -0.5950169
32.808765 13.845469 0.82677215
14.305916 6.0371704 -1.4486533
19.194935 8.1082573 -0.96807897
27.480148 11.608068 -0
35.073799 14.81575 1.7689148
12.640934 5.3397388 -1.6047354
16.471462 6.9645934 -1.2505264
23.617908 9.98631 -0.59534055
32.73877 13.842865 0.82525164
14.30331 6.0537248 -1.4490308
19.194229 8.1237545 -0.96832913
27.473118 11.627707 -0
32.726307 13.851063 1.6510086
12.634371 5.3525648 -1.6046128
16.473377 6.9789639 -1.2510415
23.62517 10.008829 -0.59569961
32.709156 13.870738 0.82487082
14.30302 6.0653791 -1.4494299
19.196312 8.1404428 -0.96872073
27.468477 11.659675 -0
32.644474 13.856754 1.6476113
12.632024 5.3619752 -1.6047897
16.474634 6.9930663 -1.2515074
23.629629 10.039916 -0.59607679
32.701511 13.894441 0.8249225
14.302791 6.0770664 -1.4498363
19.194277 8.1633053 -0.96904886
27.457634 11.677702 -0
32.626713 13.876105 1.6472033
12.625652 5.3748813 -1.6046945
16.473757 7.013062 -1.2519979
23.637848 10.062896 -0.59646118
32.692955 13.917756 0.82495153
14.299532 6.0933676 -1.4501519
19.195896 8.1798239 -0.96941864
27.460794 11.701692 -0
32.617977 13.912745 1.6474971
12.625216 5.3851099 -1.6051165
16.475344 7.0273285 -1.2524911
23.642706 10.094222 -0.59685016
32.585735 13.912438 0.82261324
14.300497 6.1055789 -1.4506817
19.196175 8.1957817 -0.96972138
27.452835 11.732285 -0
32.613712 13.937843 1.6477726
12.624271 5.3951273 -1.6054748
16.47378 7.0470605 -1.2529325
23.652132 10.117776 -0.59726632
32.530235 13.915601 0.82145721
14.296026 6.1213775 -1.4508777
19.19515 8.21912 -0.97010392
27.450563 11.753984 -0
32.543209 13.93459 1.6447016
12.623929 5.4106216 -1.6061509
16.474623 7.0610309 -1.2533712
23.659672 10.140547 -0.59763533
32.427361 13.911783 0.8192268
14.296145 6.1332426 -1.451324
19.197044 8.235796 -0.97049004
27.450428 11.77661 -0
12.625995 5.4219441 -1.606895
16.475166 7.0748835 -1.2537881
23.6635 10.171533 -0.59800071
32.357903 13.908741 0.81771719
14.294326 6.1442814 -1.4515743
19.198303 8.2601509 -0.97099042
27.416552 11.796087 -0
12.628087 5.4332876 -1.6076436
16.474119 7.0948758 -1.2542732
23.672209 10.194862 -0.59840059
32.288467 13.905608 0.81620759
14.291955 6.1610026 -1.451988
19.205181 8.2790041 -0.97163033
27.437365 11.82775 -0
12.627092 5.4485378 -1.6082425
16.474815 7.1088142 -1.2547036
23.679752 10.217714 -0.59877139
32.260983 13.933839 0.81588119
14.291971 6.1728444 -1.4524271
19.21283 8.2982121 -0.97231019
27.395384 11.843687 -0
12.627987 5.4593844 -1.6088414
16.474157 7.1290035 -1.2552214
23.68574 10.249733 -0.59919393
32.223289 13.944261 0.81517398
14.294369 6.1857247 -1.4531093
19.218557 8.3245773 -0.97304076
27.383883 11.861413 -0
12.627104 5.4747043 -1.6094584
16.474503 7.1428123 -1.2556274
23.697998 10.274687 -0.59968531
32.113556 13.93672 0.81276679
14.293342 6.2030592 -1.4536644
19.228384 8.3447809 -0.97383296
27.398708 11.890558 -0
12.62705 5.485157 -1.6099395
16.475981 7.1571221 -1.2561207
23.707245 10.308202 -0.60019213
32.049026 13.935311 0.81137955
14.295892 6.2160296 -1.4543648
19.236975 8.3644733 -0.97456354
27.379257 11.916203 -0
12.628554 5.4962931 -1.61062
16.473194 7.1764259 -1.2564803
23.717587 10.332393 -0.60063642
31.995253 13.938498 0.81026435
14.294081 6.2330489 -1.4548438
19.243765 8.3913984 -0.97535211
27.373079 11.936252 -0
12.62681 5.5112686 -1.6111327
16.474144 7.1905279 -1.2569354
23.729265 10.357197 -0.60111517
31.90871 13.94057 0.80844194
14.293859 6.244833 -1.4552647
19.251703 8.410861 -0.97605187
27.35627 11.963032 -0
12.627048 5.5218701 -1.6116544
16.474297 7.2042913 -1.2573304
23.732071 10.388022 -0.60146147
31.852283 13.942408 0.80725873
14.292632 6.2561827 -1.4555839
19.257181 8.4372807 -0.97677702
27.380112 11.996236 -0
12.623568 5.5361028 -1.6119493
16.473059 7.2243094 -1.2578127
23.737331 10.410077 -0.60177881
31.732998 13.9166 0.80448163
14.28935 6.2725849 -1.4559178
19.260933 8.454957 -0.97726649
27.358854 12.009695 -0
12.623109 5.5464129 -1.6123849
16.473471 7.2382064 -1.2582296
23.741394 10.441517 -0.60215873
31.677225 13.931712 0.80343711
14.288206 6.2839842 -1.456248
19.263527 8.4721403 -0.97769797
27.319448 12.026535 -0
31.65958 13.937142 1.6070921
12.620193 5.5556459 -1.6125075
16.471123 7.2577629 -1.2586303
23.747679 10.464072 -0.60250324
31.662666 13.951697 0.80331475
14.288087 6.2958393 -1.4566834
19.258999 8.4942293 -0.97791916
27.34375 12.060028 -0
31.597933 13.936346 1.6044563
12.61703 5.570034 -1.6128477
16.472006 7.2718883 -1.2590853
23.756195 10.487636 -0.60290492
31.661327 13.990719 0.80365199
14.286787 6.3131409 -1.4572241
19.253742 8.5079727 -0.97795355
27.334251 12.078641 -0
31.569403 13.963272 1.6037493
12.614309 5.5793591 -1.6129974
16.470596 7.2850099 -1.2593659
23.758018 10.518183 -0.60323042
31.643053 14.009056 0.80343622
14.287853 6.3255382 -1.4577829
19.243111 8.5273714 -0.97786659
27.306051 12.100375 -0
31.598068 14.002335 1.6057017
12.612575 5.5891228 -1.6132742
16.468372 7.3046551 -1.2597802
23.7617 10.53966 -0.60351056
31.55191 13.995058 0.80136991
14.286873 6.3430061 -1.4583598
19.233515 8.5391884 -0.97768164
27.310986 12.12538 -0
31.586134 14.036636 1.6058413
12.607991 5.6028948 -1.6134375
16.467434 7.3180022 -1.2600989
23.758976 10.558307 -0.60362846
14.288695 6.3557606 -1.4589984
19.222343 8.5502987 -0.97741699
27.311121 12.159692 -0
31.579571 14.060128 1.6060063
12.607054 5.6130214 -1.6138186
16.465244 7.3376856 -1.2605186
23.750332 10.584263 -0.60369009
14.287985 6.3673968 -1.4593794
19.206858 8.5675144 -0.97708523
27.29995 12.177563 -0
12.602232 5.6266947 -1.6139548
16.46339 7.3506403 -1.2607692
23.738977 10.599073 -0.60358948
14.286245 6.3845615 -1.4598838
19.199018 8.5800934 -0.97699094
27.288767 12.195423 -0
12.602126 5.6372023 -1.6144449
16.46608 7.3656325 -1.2613688
23.724443 10.622396 -0.60350239
14.28537 6.3961391 -1.4602504
19.190603 8.592411 -0.97686768
27.27705 12.224472 -0
12.599249 5.6464748 -1.6145809
16.461948 7.3844824 -1.2616439
23.708935 10.635327 -0.60329658
14.28317 6.4131184 -1.4607111
19.185118 8.6140842 -0.97704715
27.270113 12.244232 -0
12.596691 5.6611767 -1.6150119
16.465141 7.3997273 -1.2622843
23.696802 10.649763 -0.60317689
14.282946 6.4250031 -1.4611466
19.185648 8.6304216 -0.97738069
27.256741 12.272542 -0
12.594257 5.6706543 -1.6152071
16.466438 7.4141316 -1.2627802
23.676949 10.670657 -0.6029557
14.284307 6.4376097 -1.4617453
19.187412 8.655386 -0.9779318
27.250837 12.292773 -0
12.591884 5.6854525 -1.6156653
16.467438 7.4353323 -1.2634532
23.665329 10.685305 -0.6028496
14.282308 6.454711 -1.4622315
19.194487 8.6747084 -0.97860074
27.235308 12.308658 -0
12.588865 5.6946735 -1.6157877
16.468102 7.4494767 -1.2639028
23.648186 10.707391 -0.60269821
14.283255 6.4671507 -1.4627904
19.204279 8.6952848 -0.97940928
27.240013 12.345153 -0
12.587785 5.7047744 -1.6161598
16.467709 7.4700823 -1.2644724
23.640491 10.723801 -0.60269278
14.28458 6.4797721 -1.463389
19.211756 8.7229242 -0.9802559
27.231922 12.364409 -0
12.581486 5.7178087 -1.616119
16.465824 7.4830928 -1.2647284
23.632679 10.740157 -0.60268462
14.282637 6.4969335 -1.4638861
19.220472 8.7430725 -0.98101187
27.20195 12.373713 -0
12.578092 5.7268639 -1.6161962
16.465347 7.4967499 -1.2650936
23.624262 10.766195 -0.60275716
14.282132 6.5087419 -1.4642998
19.225683 8.7697535 -0.98174608
27.231625 12.421646 -0
12.573067 5.7351766 -1.6160645
16.461317 7.5157361 -1.2653879
23.616882 10.78275 -0.60276073
30.673286 14.004489 0.78285748
14.279023 6.5253916 -1.4646808
19.230133 8.7880068 -0.98228627
27.20163 12.430913 -0
12.56716 5.7483883 -1.6160781
16.46287 7.5303388 -1.2659111
23.606258 10.797822 -0.60268188
30.612373 14.015436 0.78167701
14.277045 6.5365405 -1.4649457
19.234282 8.8061399 -0.98281205
27.172617 12.452068 -0
30.597071 14.021352 1.5636652
12.563144 5.7571607 -1.6160781
16.4622 7.5508885 -1.266467
23.584148 10.817587 -0.60240626
30.598322 14.034851 0.78156817
14.275307 6.5478034 -1.4652361
19.233276 8.8300543 -0.98323262
27.177761 12.477391 -0
30.542627 14.022211 1.5613828
12.559752 5.7715287 -1.6164185
16.465351 7.5662522 -1.2671155
23.558422 10.8257 -0.60194206
30.580425 14.052491 0.78136146
14.27194 6.5643582 -1.4655952
19.236998 8.8480291 -0.98373842
27.16585 12.494893 -0
30.528458 14.054433 1.5614101
12.56016 5.78234 -1.6169901
16.468666 7.5817051 -1.2677776
23.521961 10.838794 -0.60130012
30.570019 14.086501 0.78147209
14.272864 6.5768595 -1.4661613
19.239428 8.8654251 -0.9841789
27.170841 12.531678 -0
30.532883 14.082312 1.5621388
12.561088 5.7933984 -1.6176299
16.468466 7.6025238 -1.2683743
23.483683 10.841038 -0.60051495
30.508625 14.084041 0.78015381
14.270983 6.5941186 -1.4666766
19.238811 8.8895779 -0.98462307
27.133364 12.537372 -0
30.499737 14.092854 1.5609459
12.561846 5.8097086 -1.6185101
16.469627 7.6170125 -1.268873
23.444918 10.843004 -0.59971708
14.273152 6.6072173 -1.4673733
19.239435 8.9061699 -0.98497295
27.142548 12.576125 -0
30.429235 14.098966 1.5580925
12.563701 5.8212171 -1.6192724
16.470564 7.6314082 -1.2693553
23.398689 10.851382 -0.59882492
14.274252 6.6198311 -1.4679611
19.236151 8.929122 -0.98528296
27.127384 12.592111 -0
12.563192 5.8369699 -1.6199937
16.468288 7.6513119 -1.2697967
23.357676 10.852182 -0.597969
14.27292 6.637383 -1.468538
19.236174 8.9454622 -0.98560381
27.123369 12.61327 -0
12.56344 5.847753 -1.6205518
16.467888 7.6651087 -1.2701782
23.315784 10.86242 -0.59718746
14.273465 6.6497602 -1.4690714
19.236574 8.9619865 -0.98594463
27.118641 12.645628 -0
12.564454 5.8589001 -1.6212096
16.465714 7.6850858 -1.2706305
23.275816 10.863583 -0.59635782
14.274106 6.6621909 -1.4696157
19.236511 8.9864864 -0.98642325
27.111931 12.665549 -0
12.561967 5.8737636 -1.6216816
16.466663 7.6995335 -1.2711183
23.236176 10.864843 -0.59553641
14.272511 6.6796575 -1.4701709
19.239069 9.0040493 -0.98687643
27.095652 12.680997 -0
12.562922 5.884902 -1.6223348
16.46693 7.7136722 -1.2715542
23.195614 10.875493 -0.59478837
14.272985 6.6920304 -1.4707006
19.240828 9.0294456 -0.98745114
27.094027 12.714841 -0
12.563341 5.8957973 -1.6229202
16.466249 7.7343912 -1.2721264
23.153446 10.875446 -0.59390169
14.269806 6.708777 -1.4710962
19.243418 9.04706 -0.98790795
27.074539 12.728767 -0
12.561725 5.911098 -1.62351
16.468004 7.7492528 -1.2726796
23.112068 10.875712 -0.59303486
14.269835 6.7209582 -1.4715824
19.246946 9.0651312 -0.98841375
27.060133 12.756613 -0
12.56177 5.9218349 -1.6240499
16.465588 7.7691879 -1.273121
23.06708 10.884061 -0.59217262
14.268516 6.732512 -1.4719307
19.24531 9.0889978 -0.98881799
27.057049 12.778254 -0
12.558614 5.936429 -1.6244446
16.467699 7.784245 -1.2737042
23.025864 10.884274 -0.59130949
14.265781 6.7494965 -1.4723771
19.248484 9.1069365 -0.98930746
27.031702 12.789371 -0
12.557343 5.9465566 -1.6248167
16.468037 7.7984748 -1.2741511
22.978741 10.891454 -0.59039193
14.265319 6.7614698 -1.4728161
19.249596 9.1239157 -0.98969179
27.040529 12.82822 -0
12.555501 5.9564195 -1.6251161
16.468027 7.8195934 -1.2747833
22.940159 10.892786 -0.58959591
29.685585 14.09575 0.76296329
14.263816 6.7790594 -1.4733931
19.250816 9.1491938 -0.99024653
27.019924 12.841561 -0
12.552165 5.9709473 -1.6254927
16.469744 7.8345032 -1.2753391
22.900387 10.893499 -0.58876902
29.576136 14.081754 0.76052886
14.263153 6.7909551 -1.473814
19.252562 9.1665068 -0.99066532
27.000643 12.867077 -0
12.55055 5.9809275 -1.625824
16.472818 7.8500729 -1.2760012
22.855974 10.901739 -0.58792037
29.567884 14.103155 0.76056969
14.263358 6.8032718 -1.4743257
19.254608 9.1922274 -0.99126536
27.003817 12.89173 -0
29.520472 14.093191 1.5197724
12.548691 5.9961748 -1.6263956
16.471304 7.8705277 -1.2765217
22.815905 10.902185 -0.58708531
29.531605 14.111166 0.75988966
14.259911 6.8199668 -1.4747066
19.257021 9.2098923 -0.99172038
26.99428 12.910326 -0
29.485741 14.114545 1.5187445
12.547756 6.0064921 -1.6268176
16.471498 7.8847504 -1.2769631
22.774086 10.901739 -0.58620495
29.551607 14.158755 0.76078546
14.258021 6.8312984 -1.4750042
19.261074 9.2283583 -0.99226063
26.972292 12.934534 -0
29.471657 14.133101 1.5185269
12.547863 6.017314 -1.6273756
16.468397 7.9044738 -1.2773637
22.72826 10.909072 -0.5853191
29.519077 14.168517 0.76020247
14.257212 6.8431525 -1.4754142
19.25963 9.2524776 -0.99268484
26.955862 12.949808 -0
29.482254 14.163507 1.519582
12.544561 6.0318966 -1.6277658
16.467546 7.9182148 -1.2777261
22.685339 10.907964 -0.58440971
14.253542 6.8597655 -1.475777
19.261076 9.2697287 -0.99309272
26.961597 12.975739 -0
29.479605 14.200249 1.5202111
12.543493 6.0421681 -1.6281742
16.467911 7.9325504 -1.2781838
22.643511 10.91706 -0.58362633
14.253584 6.8720455 -1.4762778
19.259266 9.2937088 -0.99350065
26.934803 12.9976 -0
48.28334 23.299503 2.4907248
12.541822 6.0521545 -1.6285053
16.464964 7.952384 -1.2786007
22.606449 10.91865 -0.5828675
14.251388 6.889389 -1.4767967
19.260958 9.3111095 -0.99392301
26.931524 13.019206 -0
48.237839 23.339855 2.4896369
12.538517 6.0667553 -1.6289002
16.468424 7.9682388 -1.279301
22.573441 10.922149 -0.58221287
14.251125 6.9015403 -1.4772685
19.252241 9.3234825 -0.99380881
26.913658 13.045357 -0
48.188877 23.357698 2.487951
12.537176 6.0769119 -1.6292768
16.468748 7.9825892 -1.2797588
22.540207 10.935213 -0.58165073
14.251412 6.9139662 -1.4777982
19.247135 9.3459053 -0.99404991
26.900328 13.062096 -0
48.133072 23.37216 2.4859116
12.53447 6.0918183 -1.6297531
16.470402 8.0047026 -1.2805381
22.512407 10.941149 -0.58113027
14.247766 6.9306388 -1.4781719
19.233658 9.3559599 -0.99369097
26.898579 13.08446 -0
48.101692 23.419205 2.4855564
12.532411 6.1016374 -1.630039
16.4708 8.0191164 -1.2810041
22.483805 10.956369 -0.58068782
39.809151 19.399017 1.0281484
14.247749 6.9429355 -1.4786727
19.220879 9.3663435 -0.99336827
26.908033 13.123923 -0
48.092663 23.456354 2.4859352
12.531008 6.1117797 -1.630411
16.47171 8.0409069 -1.2817289
22.462746 10.965519 -0.58034152
39.758327 19.408611 1.0271856
14.244664 6.9599004 -1.4791081
17.710623 8.6533575 -0.91578352
26.867804 13.127529 -0
48.054783 23.479424 2.4848239
12.526483 6.1258192 -1.630656
16.472113 8.0553484 -1.2821976
22.445753 10.976635 -0.5801003
39.512936 19.340084 1.0213684
14.244833 6.9723058 -1.4796306
17.707207 8.6670065 -0.91591948
26.882456 13.169578 -0
48.054836 23.541819 2.4861002
12.524817 6.1358433 -1.6309962
16.475618 8.0713205 -1.2829088
22.430002 10.998054 -0.57999063
39.495182 19.365585 1.0212586
14.244955 6.9846973 -1.4801495
17.688593 8.6808691 -0.91542643
26.855371 13.179564 -0
48.036324 23.574347 2.4859931
12.520056 6.1497769 -1.631214
16.473942 8.0919027 -1.2834374
22.420637 11.012883 -0.57994711
39.583969 19.443409 1.0239052
14.242799 7.0021505 -1.4806865
17.675175 8.6896 -0.91504568
26.848267 13.199345 -0
48.014133 23.625877 2.4861236
12.518579 6.1599035 -1.6315815
16.477205 8.107789 -1.2841322
22.41424 11.029171 -0.57998061
39.595711 19.500673 1.0247366
14.243036 7.0146179 -1.48122
17.648134 8.6916113 -0.9139598
26.83338 13.226934 -0
47.997696 23.659428 2.4861274
12.516224 6.1696024 -1.6318357
16.475309 8.1282978 -1.2846472
22.404568 11.053571 -0.58002961
39.599422 19.536863 1.0251855
14.241972 7.026453 -1.4816191
17.624958 8.7031422 -0.91323102
26.821512 13.244368 -0
47.957027 23.681009 2.4848764
12.512609 6.1841154 -1.6322076
16.47805 8.143959 -1.285304
17.765255 8.7801342 -0.46008146
39.58997 19.583776 1.0254711
14.23879 7.0434327 -1.4820546
17.603035 8.7076073 -0.91240984
26.825914 13.269843 -0
47.981541 23.755646 2.4874344
12.510235 6.1938133 -1.6324618
16.477285 8.1578979 -1.2856882
17.747652 8.7945719 -0.45986387
39.573696 19.610126 1.025404
14.236413 7.0546322 -1.4823195
26.813494 13.287007 -0
47.950695 23.761219 2.4862652
12.511027 6.1996441 -1.6328474
16.481419 8.1671095 -1.2862331
17.733341 8.7874804 -0.45949304
28.535856 14.152906 0.73952764
14.2382 7.0617094 -1.4827621
17.604744 8.731411 -0.91297179
26.81838 13.312757 -0
47.961884 23.808481 2.4877062
12.508851 6.2094464 -1.6331288
16.477777 8.1868095 -1.2866173
17.718639 8.803318 -0.45935068
28.521351 14.170531 0.73940796
14.236402 7.0732055 -1.4830887
17.578819 8.7415018 -0.91210163
26.796488 13.325215 -0
28.478575 14.161674 1.4776506
12.50519 6.2239599 -1.6335008
16.47764 8.2010889 -1.2870532
17.703049 8.8109875 -0.45910588
28.496534 14.195428 0.73914957
14.234139 7.0906763 -1.4836258
17.585636 8.76021 -0.91277236
26.798717 13.349668 -0
28.437643 14.178484 1.4762965
12.503029 6.2337794 -1.6337866
16.476898 8.2150774 -1.2874429
17.694546 8.8298874 -0.45912492
28.494898 14.219452 0.73936445
14.23458 7.1033039 -1.4841882
17.595366 8.7803946 -0.91359544
26.784723 13.377724 -0
28.432974 14.200949 1.4765685
12.50159 6.2439628 -1.6341677
16.474491 8.2354288 -1.287928
17.687923 8.8420115 -0.45911315
28.463028 14.228375 0.73879504
14.232594 7.1209383 -1.4847578
17.606367 8.8089247 -0.91464508
26.772234 13.394847 -0
28.435511 14.227028 1.4772156
12.498132 6.2585969 -1.6345716
16.473963 8.2495451 -1.2883366
17.686426 8.8567009 -0.45923463
28.415155 14.241656 0.73793918
14.233356 7.1337485 -1.4853566
17.620132 8.8311977 -0.91568023
26.751907 13.419723 -0
28.409122 14.251042 1.4766191
12.496881 6.2688866 -1.6349798
16.47426 8.2640839 -1.2888108
22.340395 11.216512 -0.58038139
28.343433 14.230475 0.73633432
14.233552 7.1462836 -1.4858972
17.632072 8.8602972 -0.91678244
26.764521 13.449446 -0
47.917656 24.079113 2.4914861
12.497319 6.2800312 -1.6356106
16.472038 8.2845707 -1.2893149
22.33099 11.231316 -0.58034056
14.230577 7.1634583 -1.4863689
17.638708 8.8790607 -0.91744953
26.749367 13.465229 -0
47.92691 24.14666 2.4932809
12.495102 6.2953143 -1.6361822
16.471609 8.298768 -1.2897345
22.321051 11.245849 -0.5802862
14.228177 7.174705 -1.486641
17.639509 8.8949041 -0.91781396
26.73996 13.49561 -0
47.936691 24.193563 2.4946678
12.494825 6.3061161 -1.6367221
16.467918 8.3185425 -1.2901269
22.308355 11.26876 -0.5802626
14.227088 7.1866179 -1.4870511
17.632378 8.9144802 -0.91792816
26.727394 13.512689 -0
47.945385 24.239964 2.4960001
12.4932 6.3217196 -1.6373755
16.466696 8.3323603 -1.2904866
22.298916 11.283538 -0.58022183
14.222191 7.202848 -1.4873269
17.986998 9.109539 -0.93672019
26.723181 13.533992 -0
47.929371 24.294922 2.4964895
12.491829 6.331984 -1.6377747
16.466402 8.3466549 -1.2909199
22.285416 11.306035 -0.58017826
14.221113 7.2147813 -1.4877405
19.091394 9.6856165 -0.99458653
26.716309 13.565682 -0
47.947887 24.346395 2.4983387
12.491245 6.3426528 -1.6382784
16.462099 8.3661537 -1.2912686
22.275845 11.320741 -0.58013475
14.218022 7.2319446 -1.4882087
19.273504 9.8033972 -1.004608
26.694818 13.578221 -0
47.959049 24.394194 2.4998071
12.487086 6.3569975 -1.638605
16.462816 8.3809862 -1.2917836
22.268806 11.336733 -0.58015746
14.218168 7.2445173 -1.488753
19.270237 9.818675 -1.0047947
26.704128 13.606431 -0
47.972061 24.464079 2.5018194
12.487173 6.3680229 -1.6391994
16.463453 8.3957872 -1.2922932
22.25494 11.359035 -0.58010578
14.218164 7.2570233 -1.4892827
19.267345 9.8426304 -1.0051808
26.678907 13.62879 -0
47.948715 24.49437 2.501493
12.484486 6.3776388 -1.6394308
16.461834 8.4166956 -1.2928572
22.248638 11.375403 -0.58014834
14.215335 7.2743535 -1.4897834
19.265402 9.8586025 -1.0054383
26.679296 13.652484 -0
47.958397 24.562675 2.5033386
12.483118 6.3934331 -1.6401296
16.461954 8.4312592 -1.2933286
22.241838 11.391521 -0.58017826
14.214753 7.2865825 -1.4902551
19.267994 9.8769093 -1.0059332
26.682711 13.689508 -0
47.963142 24.607389 2.5044825
12.481103 6.4034038 -1.6404517
16.463484 8.4465561 -1.2939117
22.232191 11.415983 -0.5802381
14.214126 7.2987962 -1.4907233
19.268122 9.9024677 -1.0064807
26.654905 13.698759 -0
12.478875 6.4187775 -1.6410415
16.460001 8.4665546 -1.2943341
22.225813 11.432323 -0.58027983
14.211143 7.3160806 -1.4912131
19.27248 9.9217224 -1.0070698
26.651066 13.720314 -0
47.945129 24.703951 2.5057895
12.477254 6.4289627 -1.6414181
16.460045 8.4811134 -1.2948028
22.220181 11.458868 -0.58044577
14.210042 7.3280678 -1.491634
19.277096 9.9411297 -1.0076735
26.640329 13.750097 -0
47.987167 24.768019 2.5088894
12.476486 6.4395938 -1.641908
16.456451 8.5010824 -1.2952197
22.218107 11.477443 -0.5806008
22.167591 11.451346 0.57928067
14.209691 7.3404498 -1.4921348
19.278912 9.9676371 -1.0083134
26.631243 13.768961 -0
47.952187 24.792376 2.5079648
12.472631 6.4541535 -1.6422892
16.456915 8.5158825 -1.2957238
22.218899 11.497509 -0.58083111
22.151461 11.472416 0.57917279
14.206141 7.3574724 -1.4925702
19.280783 9.9856701 -1.0087757
26.638794 13.796442 -0
27.520823 14.265437 1.4401572
12.471222 6.4644661 -1.6426976
16.456188 8.530077 -1.2961352
22.216831 11.525949 -0.58109224
22.138107 11.485108 0.57903314
14.204763 7.3693409 -1.4929657
19.279667 10.010711 -1.0092652
26.612095 13.817977 -0
27.439587 14.247642 1.4364264
12.469942 6.4748521 -1.643124
16.455235 8.5514555 -1.2967647
22.214426 11.544393 -0.58124
22.121143 11.495915 0.57879925
14.201697 7.3866348 -1.4934555
19.279734 10.027841 -1.009635
22.154001 11.522815 -0
27.41312 14.258205 1.4355617
12.466045 6.4894118 -1.6435052
16.456278 8.5665941 -1.2973179
22.207088 11.560277 -0.58125901
22.098148 11.513372 0.57851273
14.200986 7.3988662 -1.4939237
19.281137 10.045679 -1.0100756
22.122007 11.535623 -0
27.384682 14.279868 1.4348546
12.46509 6.4999785 -1.643977
16.459 8.5826216 -1.2980045
22.190712 11.581304 -0.58114749
22.077953 11.522454 0.5781945
14.201093 7.4115314 -1.4944788
19.278425 10.069948 -1.0104853
22.084553 11.535709 -0
27.379271 14.301368 1.4350939
12.460786 6.5143409 -1.6443082
16.456944 8.6034813 -1.2985522
22.172724 11.591619 -0.58088821
22.045677 11.5252 0.57755983
14.198286 7.4289956 -1.4950013
19.282349 10.089139 -1.0110599
22.050917 11.537742 -0
27.383568 14.340133 1.4361055
12.459638 6.5248203 -1.6447574
16.458183 8.6187649 -1.2991244
22.15539 11.602258 -0.58064616
22.011011 11.536442 0.57696778
14.198574 7.4417768 -1.4955783
19.284149 10.107236 -1.0115241
22.01049 11.545965 -0
12.458275 6.5351934 -1.6451794
16.454668 8.6388931 -1.2995604
22.134514 11.620878 -0.58041763
21.970415 11.534724 0.57611459
14.197507 7.4538569 -1.4960138
19.283398 10.132597 -1.0120407
21.9823 11.550754 -0
12.454172 6.5496807 -1.6455424
16.453255 8.6528091 -1.2999256
22.123217 11.634656 -0.58033425
21.927637 11.541573 0.57530946
14.194444 7.4712205 -1.4965144
19.286127 10.151218 -1.0125555
21.964344 11.560894 -0
12.453509 6.5604353 -1.6460595
16.450727 8.6661453 -1.3002034
22.108843 11.65667 -0.58027709
21.888069 11.540268 0.57448256
14.193869 7.4835768 -1.4970044
19.287214 10.168993 -1.0129852
21.952019 11.583779 -0
12.452323 6.5709205 -1.6465087
16.443951 8.6845875 -1.3003861
22.102669 11.673141 -0.58032882
21.861567 11.545807 0.57399839
14.189497 7.5002723 -1.4973708
19.28549 10.193908 -1.0134547
21.946724 11.60058 -0
12.449346 6.5860252 -1.6470259
16.44002 8.6971951 -1.300555
22.093893 11.68824 -0.58031249
21.833727 11.560361 0.57358497
14.189344 7.5128703 -1.4979079
19.287439 10.212172 -1.0139315
21.938808 11.625807 -0
12.448241 6.5965676 -1.6474887
16.434977 8.709218 -1.3006366
22.084089 11.712669 -0.58037686
21.823891 11.574668 0.57353872
14.188185 7.5249429 -1.4983397
19.28635 10.237468 -1.0144373
21.933792 11.642768 -0
12.447368 6.6072392 -1.6479833
16.429186 8.7281971 -1.3009011
22.071596 11.725794 -0.5802635
21.817978 11.591056 0.57359582
14.184624 7.5420971 -1.4987968
19.287983 10.255601 -1.0148996
21.927383 11.658995 -0
31.459167 16.741222 1.6556331
12.443216 6.621747 -1.6483508
16.426495 8.741477 -1.3011708
22.057751 11.738191 -0.58011484
21.812136 11.617256 0.57376176
14.183509 7.5542107 -1.4992359
19.292011 10.275025 -1.0154887
21.912714 11.680646 -0
31.397371 16.736475 1.6529955
12.44174 6.6321115 -1.6487682
16.423176 8.7617922 -1.301634
22.031044 11.7536 -0.57973582
21.813185 11.637371 0.57400292
14.182967 7.566637 -1.4997367
19.290535 10.300185 -1.0159782
21.900558 11.693807 -0
31.438343 16.78651 1.6557691
12.437868 6.6467824 -1.6491766
16.423069 8.7764692 -1.3021109
22.002272 11.757989 -0.57919455
21.815905 11.658395 0.57428855
14.178191 7.5831728 -1.5000705
19.294281 10.319502 -1.0165547
21.884121 11.704672 -0
31.443935 16.831835 1.656991
12.435619 6.6567459 -1.6494942
16.423946 8.7916842 -1.3026668
21.958002 11.763909 -0.57835317
21.816628 11.688168 0.57462949
14.177453 7.5955119 -1.5005531
19.296152 10.337834 -1.0170333
21.864244 11.723503 -0
31.45023 16.863462 1.6579428
12.434525 6.6673326 -1.649966
16.422525 8.8130608 -1.3032852
21.916647 11.761453 -0.57748002
21.82226 11.710801 0.57499301
14.173775 7.6126547 -1.5010067
19.293877 10.362633 -1.0174847
21.848862 11.734901 -0
31.442059 16.887354 1.658133
12.429621 6.6814709 -1.6502428
16.424948 8.8291368 -1.3039665
21.871901 11.757114 -0.57651716
21.824188 11.741288 0.57536751
14.173012 7.624999 -1.5014893
19.295984 10.381128 -1.0179778
21.839357 11.749449 -0
31.431572 16.924156 1.6585138
12.429462 6.692575 -1.6508417
16.429073 8.8461437 -1.3047839
21.831593 11.764932 -0.57577914
21.831593 11.764932 0.57577914
14.171896 7.6371613 -1.5019356
19.293379 10.405793 -1.0184147
21.829483 11.773629 -0
31.447601 16.961117 1.659984
12.426836 6.7023559 -1.651114
16.432455 8.8701735 -1.3057895
21.815607 11.775978 -0.57557422
21.839525 11.788889 0.57620525
14.168715 7.6546044 -1.5024472
19.295584 10.424379 -1.0189151
21.830847 11.794046 -0
12.424828 6.7180781 -1.6517808
16.438871 8.888464 -1.3067921
21.800613 11.787546 -0.57539558
21.845921 11.8219 0.57670027
14.167542 7.6667523 -1.5028899
19.299627 10.443976 -1.0195132
21.832497 11.824491 -0
12.423102 6.7283583 -1.6521757
16.445511 8.9068966 -1.307814
21.802231 11.817944 -0.5757646
21.859327 11.848892 0.57727242
14.166494 7.6789765 -1.5033472
19.299793 10.470209 -1.0201006
21.834675 11.845392 -0
26.395048 14.319412 1.3951241
12.420243 6.7436409 -1.6527337
16.448298 8.9306955 -1.3087786
21.886158 11.883212 -0.57819992
21.874077 11.876654 0.5778808
14.161554 7.6954975 -1.5036774
19.3041 10.489997 -1.0207152
21.839752 11.867888 -0
26.334311 14.322176 1.3927058
12.417373 6.7533112 -1.6529787
16.452534 8.9478741 -1.3096124
21.969604 11.958326 -0.58073497
21.885227 11.912398 0.57850456
14.160893 7.7079482 -1.504178
19.306643 10.508843 -1.0212373
26.259739 14.305384 -0
26.347948 14.353436 1.3939567
12.416403 6.76402 -1.6534778
16.451982 8.9699106 -1.3103154
21.976269 11.981849 -0.58113211
21.893225 11.936572 0.57893616
14.159265 7.7198806 -1.5045772
19.302547 10.532831 -1.0216035
26.218885 14.306873 -0
26.375326 14.392238 1.3959363
12.410641 6.7777443 -1.6536547
16.454472 8.9861755 -1.311013
21.972252 11.999565 -0.58124727
21.895792 11.967733 0.57933509
14.157213 7.7380056 -1.5052195
19.300016 10.548943 -1.0218592
26.184725 14.311966 -0
26.369995 14.425187 1.3964529
12.408289 6.7877102 -1.6539724
16.455647 9.0017376 -1.311607
21.971628 12.029113 -0.58156371
26.345798 14.423902 0.69734293
14.156754 7.7505956 -1.5057456
19.291834 10.570724 -1.0220114
26.160475 14.334311 -0
26.311771 14.417212 1.3939022
12.407698 6.7986455 -1.6545259
16.453112 9.0227499 -1.3121574
21.96586 12.045896 -0.58163351
26.300249 14.422837 0.69640362
14.15545 7.7691588 -1.5064713
19.089811 10.477363 -1.0116962
26.129915 14.341293 -0
26.274506 14.420651 1.3924611
12.404177 6.8136153 -1.6550068
16.45282 9.0375357 -1.312637
21.961554 12.063483 -0.58174229
26.256384 14.434567 0.69564199
14.153737 7.7810817 -1.5068668
18.467003 10.152319 -0.97906488
26.086134 14.352832 -0
26.2558 14.446183 1.3922707
12.404074 6.8248358 -1.6556284
16.453199 9.052702 -1.313171
21.953424 12.088962 -0.58186197
26.212435 14.434245 0.69474441
14.15423 7.7942252 -1.5074983
17.905783 9.8682175 -0.94985795
26.050449 14.356898 -0
26.207775 14.443604 1.3902584
12.401948 6.8405948 -1.6562998
16.450533 9.0736904 -1.3137161
21.949903 12.107001 -0.58199257
26.160324 14.429361 0.6936301
14.149635 7.811017 -1.5078793
26.022467 14.36517 -0
26.168556 14.457738 1.3889804
12.400837 6.8512774 -1.6567899
16.449924 9.0883389 -1.3141738
21.946198 12.124947 -0.58211857
26.12056 14.443124 0.69297642
14.14976 7.8239799 -1.5084743
25.98485 14.37993 -0
26.117487 14.453331 1.3868049
12.399411 6.861793 -1.6572391
16.448273 9.1099215 -1.3148032
21.938509 12.150703 -0.58225185
26.083858 14.446616 0.6922701
14.148479 7.8361745 -1.5089207
25.946619 14.382444 -0
26.068996 14.450278 1.3847655
12.395137 6.8763928 -1.6576293
16.447668 9.1245966 -1.3152637
21.932652 12.167476 -0.58232164
26.029247 14.452009 0.69122201
14.147033 7.8547435 -1.5096427
17.785583 9.8749466 -0.94512278
25.921204 14.392022 -0
26.033897 14.466482 1.3837049
12.393589 6.8868537 -1.6580648
16.446812 9.139143 -1.3157052
21.92215 12.191689 -0.58238149
25.978708 14.447686 0.69014758
14.145999 7.8670945 -1.510118
17.754984 9.8741798 -0.94386286
25.871304 14.399781 -0
25.984922 14.46302 1.3816383
12.391761 6.8971648 -1.6584641
16.442747 9.1594334 -1.3161466
21.915918 12.208264 -0.58244222
25.95125 14.456145 0.68968612
14.143867 7.8853126 -1.5107712
17.747122 9.8941545 -0.94399518
25.846914 14.40985 -0
25.940567 14.462062 1.3798163
12.388394 6.9122925 -1.6589813
16.440397 9.1731701 -1.3164709
21.909676 12.224836 -0.58250302
25.897194 14.461589 0.68865156
14.143758 7.8982 -1.5113481
17.734419 9.9033079 -0.94368702
25.815956 14.428047 -0
25.903439 14.47694 1.3786471
12.387223 6.9229841 -1.6594714
16.43882 9.1873446 -1.3168578
17.792387 9.9519796 -0.47331524
25.843636 14.455359 0.68749559
14.143468 7.9109964 -1.511907
17.72455 9.9221601 -0.9437142
25.779289 14.431184 -0
25.846338 14.468718 1.3761454
12.386652 6.9340181 -1.660043
16.435616 9.2081537 -1.3173728
17.784105 9.9636536 -0.47327989
25.818241 14.464828 0.68708849
14.140332 7.9286942 -1.5124584
25.753365 14.440294 -0
25.807182 14.482313 1.3748672
12.383106 6.9490743 -1.6605421
16.436897 9.2239552 -1.3179914
17.778984 9.9770994 -0.47332886
25.762697 14.469176 0.68601316
14.140932 7.9420114 -1.5131153
17.694281 9.9376888 -0.9428404
25.71269 14.4529 -0
25.757778 14.478243 1.3727734
12.382006 6.9598274 -1.6610457
16.436806 9.2465506 -1.3187598
17.768049 9.9954443 -0.47331616
25.72097 14.469371 0.68517089
14.140434 7.9547229 -1.5136559
17.680122 9.9541063 -0.94264096
25.674002 14.454749 -0
25.707373 14.473537 1.3706251
12.3788 6.9750948 -1.6615947
16.442568 9.2649097 -1.3197407
17.762566 10.008689 -0.47335604
25.686365 14.473521 0.68451804
14.137009 7.9722967 -1.5141821
17.678099 9.9692268 -0.94290382
25.645531 14.462308 -0
25.670792 14.488367 1.3694831
12.376429 6.985146 -1.6619304
16.445904 9.2819214 -1.3205281
17.751802 10.027131 -0.4733488
25.653208 14.490252 0.68403846
14.1374 7.9855309 -1.5148207
17.670149 9.9810095 -0.94285125
25.650265 14.500402 -0
25.623985 14.485546 1.3675252
12.375838 6.9962096 -1.6625067
16.447977 9.3058167 -1.3214765
17.747007 10.040771 -0.47340772
25.603691 14.485869 0.68298757
14.133226 8.0027075 -1.5152707
17.66641 10.003315 -0.94321024
25.65798 14.528411 -0
25.600964 14.496125 1.3668363
12.370429 7.0102563 -1.6627653
16.449919 9.3220806 -1.3221549
21.869192 12.393155 -0.58359915
25.553146 14.492619 0.68204373
14.131865 8.0149708 -1.5157242
25.627445 14.534757 -0
25.548204 14.501604 1.3648295
12.369649 7.0212274 -1.6633189
16.451946 9.3384104 -1.3228416
21.853283 12.414391 -0.58352119
25.51124 14.492399 0.68119508
14.130222 8.0270824 -1.5161488
19.273857 10.957973 -1.0300514
25.541409 14.521332 -0
25.500998 14.498357 1.362848
12.366801 7.0310311 -1.6635956
16.44883 9.3594294 -1.3233784
21.839722 12.426863 -0.58339065
25.470467 14.492766 0.68037641
14.124681 8.0435114 -1.5164572
19.303297 10.992551 -1.0320346
25.511915 14.528142 -0
25.452341 14.505983 1.3610587
12.363679 7.0463982 -1.6641673
16.449604 9.3750782 -1.323967
21.83223 12.442783 -0.58342236
25.426611 14.503081 0.67961025
14.122779 8.0554895 -1.5168563
19.303448 11.01049 -1.0324534
25.431993 14.51792 -0
25.409166 14.504889 1.3592912
12.361351 7.056509 -1.6645167
16.448368 9.3895931 -1.3243948
21.817627 12.464748 -0.58338064
25.387659 14.504362 0.67883956
14.120124 8.0670452 -1.5171757
19.304813 11.038078 -1.0331441
25.370173 14.506122 -0
25.369463 14.505714 1.3577086
12.35813 7.0718393 -1.6650792
16.444614 9.4102964 -1.3248852
21.813461 12.482575 -0.58350217
25.348749 14.505615 0.67806983
14.116494 8.0845919 -1.5176946
19.304586 11.055839 -1.0335448
25.339396 14.512007 -0
25.323383 14.514577 1.3560553
12.355681 7.081893 -1.665415
16.441793 9.4239254 -1.3251877
21.80407 12.50753 -0.583601
25.306345 14.516549 0.67734176
14.114727 8.0966702 -1.5181118
19.30925 11.07642 -1.0342083
25.287632 14.51755 -0
25.285326 14.516225 1.3545597
12.3543 7.0925646 -1.6658959
16.436646 9.4438562 -1.3255692
21.80407 12.527768 -0.58383489
25.271351 14.519933 0.67667627
14.114298 8.1095257 -1.5186743
19.301802 11.099027 -1.0344312
25.247421 14.517909 -0
25.24995 14.519363 1.3532072
12.349086 7.1067753 -1.6661954
16.433224 9.4571562 -1.3258253
21.800936 12.546221 -0.58398539
25.230919 14.531869 0.67600077
14.10937 8.126359 -1.5190589
19.293676 11.112285 -1.0344113
25.207424 14.518335 -0
25.21242 14.532936 1.3520107
12.34644 7.1167321 -1.6665084
16.430534 9.4708834 -1.3261414
21.794111 12.572693 -0.58415496
25.196007 14.535195 0.67533708
14.109556 8.1395893 -1.5196903
19.275946 11.128971 -1.034085
25.161861 14.527205 -0
25.181553 14.538574 1.3508995
12.343888 7.1267462 -1.6668351
16.423744 9.4898977 -1.3263948
21.793613 12.592692 -0.58437711
25.157553 14.536428 0.67457825
14.105267 8.1568136 -1.5201474
19.257261 11.136116 -1.0334995
25.120062 14.526464 -0
25.149137 14.543278 1.3497049
12.339139 7.141243 -1.6672026
16.421871 9.5041132 -1.326779
21.789278 12.610486 -0.58449674
25.11072 14.544464 0.67373049
14.106299 8.170557 -1.5208732
19.237328 11.142517 -1.0328468
25.073441 14.534563 -0
25.108675 14.554988 1.3483506
12.337338 7.1517043 -1.6676337
16.417963 9.5171585 -1.3269998
21.77829 12.63459 -0.58455658
25.068335 14.543296 0.67286551
14.106244 8.1836824 -1.5214828
19.209822 11.153467 -1.0319966
25.031736 14.533745 -0
25.068205 14.554919 1.3467227
12.333768 7.1669006 -1.6681645
16.412737 9.5371065 -1.327384
21.772503 12.651557 -0.58463818
25.025017 14.541527 0.6719752
14.106375 8.2035141 -1.5224227
19.186682 11.15795 -1.0311718
24.990923 14.533386 -0
25.020676 14.562379 1.3449878
12.332584 7.1777344 -1.6686817
16.410858 9.5513458 -1.3277708
21.764374 12.667167 -0.58465725
24.978123 14.549288 0.6711247
14.106592 8.2168255 -1.5230649
19.160984 11.160913 -1.0302091
24.944912 14.541607 -0
24.977533 14.560623 1.3432149
12.330889 7.1882768 -1.6691309
16.405256 9.5710983 -1.3281279
21.752817 12.690954 -0.58470351
24.936388 14.548303 0.67027605
14.109587 8.2317677 -1.5240083
19.130989 11.170289 -1.0292248
24.904562 14.54139 -0
24.935553 14.559484 1.3415035
12.327173 7.2034173 -1.6696482
16.404625 9.5860882 -1.3286183
21.747087 12.707971 -0.58478779
24.891171 14.556882 0.66947001
14.106029 8.2495031 -1.5245563
19.102032 11.171271 -1.0280863
24.865372 14.541794 -0
24.888468 14.566962 1.3397903
12.325757 7.214138 -1.6701381
16.40543 9.6019278 -1.3292259
21.74209 12.735612 -0.58501178
24.850069 14.556135 0.66863769
14.108119 8.2639484 -1.5254053
19.073454 11.172436 -1.0269678
24.821049 14.550776 -0
24.847963 14.566554 1.3381569
12.324332 7.2248602 -1.6706282
16.401617 9.6227694 -1.3297328
21.734575 12.751598 -0.58504891
24.808979 14.55534 0.66780537
14.102476 8.2804909 -1.5257319
19.038223 11.178593 -1.0257006
24.782049 14.55117 -0
24.807301 14.565997 1.3365145
12.321409 7.2404947 -1.6712588
16.404537 9.639884 -1.3305148
21.734287 12.771833 -0.58528101
24.763561 14.563574 0.66699302
14.102525 8.2937651 -1.5263633
19.006939 11.178075 -1.0244352
24.739025 14.560768 -0
24.761869 14.574214 1.3348883
12.319829 7.2511415 -1.6717306
16.4065 9.6564531 -1.3312205
21.717468 12.792565 -0.58518857
24.722197 14.562485 0.66615254
14.099111 8.3050098 -1.5266209
18.971491 11.183982 -1.0231553
24.69803 14.559864 -0
24.719822 14.572712 1.3331698
12.319209 7.262361 -1.6723341
16.404133 9.6782026 -1.3318501
21.711458 12.80945 -0.58526742
24.682358 14.562238 0.66535282
14.093655 8.3216877 -1.5269729
18.942005 11.184427 -1.021986
24.650455 14.555018 -0
24.674953 14.581101 1.3315727
12.314069 7.2767186 -1.6726699
16.406227 9.6948862 -1.3325694
21.699989 12.823114 -0.58519942
24.636507 14.569987 0.66452777
14.088745 8.3320599 -1.5270709
18.910683 11.183744 -1.020717
24.612745 14.567533 -0
24.633236 14.579661 1.3298703
12.312825 7.2875862 -1.6731917
16.404783 9.7172251 -1.3332778
21.688766 12.847145 -0.58525926
24.592796 14.567321 0.66362292
14.086807 8.3441925 -1.5274918
18.879425 11.191961 -1.0196619
24.534357 14.544276 -0
24.594419 14.579882 1.3283241
12.307089 7.3016043 -1.6734502
16.404564 9.7325726 -1.3338119
21.685703 12.86579 -0.58541882
24.560621 14.571435 0.66302902
14.080804 8.360568 -1.5277894
18.850201 11.192429 -1.0185053
24.47677 14.533241 -0
24.545425 14.585596 1.3265021
12.305657 7.3123746 -1.6739494
16.407883 9.7500343 -1.3346348
21.681147 12.893802 -0.58566004
24.484362 14.560877 0.6613816
14.079242 8.372941 -1.5282538
18.820818 11.192761 -1.0173397
24.402695 14.523843 -0
24.498722 14.580996 1.3245279
12.303184 7.3225317 -1.6743078
16.404995 9.7715788 -1.3352315
21.67885 12.912932 -0.58584136
24.427252 14.550009 0.66011316
14.075811 8.3908663 -1.5288343
18.788273 11.200056 -1.0162139
24.376209 14.531135 -0
24.463165 14.582971 1.3231555
12.299273 7.3376575 -1.6748204
16.406401 9.78794 -1.3359019
21.677008 12.932345 -0.58603537
24.355537 14.541867 0.65858632
14.074158 8.403204 -1.5292915
18.757566 11.199508 -1.0149757
24.339596 14.53235 -0
24.385141 14.571092 1.3197601
12.297079 7.3479939 -1.6752198
16.407291 9.8040085 -1.3365313
21.670525 12.959268 -0.5862267
24.327114 14.547944 0.6580922
14.07216 8.4153423 -1.5297124
18.722725 11.205318 -1.0137248
24.296713 14.54128 -0
24.332474 14.562683 1.3174596
12.296041 7.3590274 -1.6757778
16.40554 9.8262911 -1.3372262
21.664486 12.976199 -0.5863083
24.288475 14.547867 0.65732151
14.066676 8.4320745 -1.5300753
18.692207 11.204784 -1.0124958
24.262766 14.54398 -0
24.26568 14.557243 1.3146678
12.291489 7.373796 -1.6762089
16.405293 9.841711 -1.3377657
21.660847 12.994576 -0.58645517
24.244699 14.556168 0.65654904
14.063987 8.4438143 -1.5304236
18.661095 11.203852 -1.0112339
24.213873 14.54916 -0
24.239325 14.564453 1.3137903
12.289231 7.3841138 -1.6766036
16.409239 9.859664 -1.3386486
21.652248 13.02027 -0.58659118
24.207457 14.556809 0.65581554
14.061588 8.4557352 -1.5308046
18.62508 11.20878 -1.0099179
24.173754 14.548034 -0
24.216011 14.573464 1.3130779
12.284815 7.3989806 -1.6770573
16.407818 9.8822107 -1.3393761
21.643721 13.035726 -0.58660656
24.166479 14.555149 0.65498054
14.057222 8.4731665 -1.5312945
18.596497 11.209271 -1.008792
24.127562 14.543189 -0
24.182795 14.587992 1.3121045
12.280942 7.4083371 -1.6772342
16.411224 9.8998823 -1.3402181
21.633068 13.0602 -0.58668816
24.118895 14.56093 0.65410376
14.055466 8.4854908 -1.5317481
18.566854 11.209082 -1.0076083
24.082561 14.550468 -0
43.578606 26.329803 2.3654745
12.278257 7.4184136 -1.6775745
16.410286 9.9227686 -1.3409892
21.621405 13.073764 -0.58661926
24.079016 14.559801 0.65329772
14.054531 8.4983206 -1.5322924
18.535843 11.216863 -1.0065622
24.03577 14.545113 -0
43.560211 26.360222 2.3654745
12.272242 7.4323325 -1.677815
16.41172 9.93929 -1.3416731
21.612238 13.088835 -0.58661836
24.037539 14.569119 0.65258598
14.049615 8.5154524 -1.5327278
18.511089 11.219546 -1.0056431
23.998451 14.545428 -0
43.488544 26.37911 2.3630817
12.269637 7.4424677 -1.6781689
16.410809 9.9544029 -1.3421663
21.59812 13.111217 -0.58660752
23.997217 14.567598 0.65176725
14.048388 8.5281248 -1.5332431
18.481623 11.228167 -1.0046805
23.949253 14.549925 -0
43.392086 26.362055 2.3588395
12.267323 7.4527845 -1.6785636
16.407932 9.9761782 -1.3427849
21.594868 13.129883 -0.58676797
23.958111 14.566758 0.65098119
14.044134 8.545682 -1.5337547
18.459278 11.232243 -1.0038919
23.913395 14.551005 -0
43.381168 26.396906 2.3592474
12.262229 7.4672813 -1.6789356
16.406389 9.9909344 -1.3432291
21.592934 13.149364 -0.58696473
23.907696 14.570418 0.65002555
14.043612 8.5588045 -1.5343498
18.436872 11.236254 -1.0030997
23.8727 14.56052 -0
12.259862 7.4775777 -1.6793258
16.407793 10.007499 -1.3439157
