# .PCD v0.7 - Point Cloud Data file format
VERSION 0.7
FIELDS x y z
SIZE 4 4 4
TYPE F F F
COUNT 1 1 1
WIDTH 1539
HEIGHT 1
VIEWPOINT 0 0 0 1 0 0 0
POINTS 1539
DATA ascii
7.5991011 -10.669295 -1.5318099
8.7660217 -12.307676 -1.0566171
8.6864643 -12.195975 -0.34763333
8.6848278 -12.184674 0.3473976
8.5126467 -11.943107 -1.3683054
8.7097187 -12.219596 -0.69716233
8.6886644 -12.190057 -0
8.7127829 -12.214871 0.69706625
7.6050611 -10.661902 -1.5315105
8.7444715 -12.259297 -1.0529876
8.6977558 -12.184806 -0.34757438
8.7057657 -12.196026 0.34789446
8.5196266 -11.935262 -1.3680878
8.7153654 -12.200467 -0.69659126
8.7090082 -12.191567 -0
8.7362099 -12.229647 0.69825727
7.6099992 -10.653087 -1.5310068
8.7498941 -12.239767 -1.0520966
8.7113705 -12.185879 -0.34777838
8.7302885 -12.212342 0.34853366
8.5301514 -11.923581 -1.3677721
8.7230864 -12.193269 -0.69652784
8.7300634 -12.203022 -0
8.7599831 -12.235816 0.69913286
7.6192088 -10.642399 -1.5306166
8.7487507 -12.220126 -1.050933
8.7255592 -12.187733 -0.34800506
8.7578106 -12.223764 0.34912118
8.5369787 -11.915536 -1.3675326
8.729393 -12.184099 -0.69635195
8.7569275 -12.213524 -0
8.7736616 -12.236864 0.69954258
7.6241274 -10.633576 -1.530113
8.7567043 -12.204214 -1.0503527
8.7512026 -12.196548 -0.34851825
8.7780218 -12.233925 0.34958631
8.5433455 -11.906856 -1.3672205
8.7471771 -12.181956 -0.69675261
8.7822428 -12.230792 -0
8.7831583 -12.232067 0.69961876
7.6336961 -10.623413 -1.5297999
8.760129 -12.19101 -1.0497423
8.7724314 -12.208131 -0.34902415
8.7999477 -12.237408 0.34994897
8.5537434 -11.895029 -1.3668903
8.7619896 -12.184622 -0.69725478
8.804121 -12.243211 -0
8.7939119 -12.220012 0.69945556
7.6392751 -10.61553 -1.5294324
8.7708683 -12.18799 -1.0500094
8.8003645 -12.219979 -0.34962618
8.8110456 -12.23481 0.35005051
8.5593405 -11.885299 -1.3664585
8.7876797 -12.193388 -0.69828266
8.8291559 -12.250938 -0
8.8002281 -12.210799 0.69927973
7.6451874 -10.608117 -1.529133
8.7919922 -12.190398 -1.0510093
8.8227139 -12.232995 -0.35017473
8.8209782 -12.230588 0.35010582
8.5693235 -11.872923 -1.3660666
8.8107376 -12.207405 -0.69943744
8.8451138 -12.255034 -0
8.8128729 -12.201387 0.69926888
7.6548381 -10.598092 -1.5288427
8.8120222 -12.20021 -1.0523854
8.8445606 -12.245257 -0.3507024
8.8319283 -12.218781 0.35003239
8.5741243 -11.862115 -1.3655114
8.8354874 -12.223704 -0.7007246
8.8639174 -12.254025 -0
8.8246136 -12.19969 0.69952446
7.6607113 -10.590639 -1.5285387
8.8410168 -12.213387 -1.0543201
8.8670187 -12.249307 -0.35108411
8.8415556 -12.21413 0.3500759
8.5793934 -11.851968 -1.3650324
8.8651543 -12.237735 -0.70206064
8.8761139 -12.252864 -0
8.838645 -12.201141 0.69996136
7.6703176 -10.580569 -1.5282438
8.8652534 -12.228886 -1.056192
8.8840723 -12.254844 -0.35142049
8.8558083 -12.206887 0.35013393
8.5889225 -11.83901 -1.3645753
8.8885431 -12.252008 -0.70323539
8.8901253 -12.254189 -0
8.8583412 -12.201415 0.70050883
7.6761069 -10.573014 -1.5279261
8.8894253 -12.24423 -1.0580531
8.9028912 -12.253779 -0.35165712
8.8710079 -12.209896 0.35039777
8.5943737 -11.829141 -1.3641289
8.9134159 -12.259263 -0.70418715
8.9088106 -12.25293 -0
8.8751173 -12.20659 0.70116144
7.681273 -10.564609 -1.5274861
8.9157 -12.25341 -1.0596526
8.9182911 -12.256971 -0.35192731
8.883873 -12.209668 0.35056913
8.6038485 -11.816141 -1.3636681
8.9299421 -12.263984 -0.70481616
8.925272 -12.25757 -0
8.895134 -12.207223 0.70173252
7.6907554 -10.554396 -1.5271729
8.9354057 -12.262489 -1.0609769
8.9329634 -12.259137 -0.3521685
8.9057884 -12.212885 0.35092908
8.6103773 -11.807775 -1.3633959
8.9449854 -12.266637 -0.70532739
8.9467382 -12.26005 -0
8.910141 -12.209898 0.70224375
7.6964984 -10.546799 -1.5268508
8.9582386 -12.266814 -1.0621622
8.9529133 -12.259521 -0.35244867
8.9197712 -12.214139 0.35114396
8.6155443 -11.797551 -1.3629098
8.961648 -12.262493 -0.70562834
8.9632702 -12.264713 -0
8.9255238 -12.213063 0.702784
7.7055917 -10.536071 -1.5264652
8.9737244 -12.270024 -1.0629824
8.9674406 -12.261432 -0.35268348
8.9389915 -12.213584 0.35139692
8.6260338 -11.785981 -1.3626158
8.9761982 -12.264421 -0.70609969
8.9799976 -12.269611 -0
8.9447412 -12.212492 0.70328975
7.7117534 -10.529061 -1.5262293
8.9895411 -12.27366 -1.0638407
8.9884481 -12.263185 -0.35300446
8.9535189 -12.215529 0.35163265
8.6322594 -11.777226 -1.3623002
8.9945984 -12.262596 -0.70653659
8.9993105 -12.26902 -0
8.959981 -12.215401 0.70381731
7.7172666 -10.521173 -1.5258663
9.0102062 -12.274888 -1.0647645
9.0034542 -12.26569 -0.35325742
8.9684458 -12.217996 0.3518838
8.6428604 -11.765829 -1.362028
9.0101566 -12.265842 -0.70708591
9.016222 -12.274099 -0
8.9784994 -12.213808 0.70426691
7.72612 -10.510147 -1.5254397
9.0236893 -12.275282 -1.0653448
9.0204344 -12.270855 -0.35358745
8.9871826 -12.216681 0.35211682
8.6483526 -11.756096 -1.3615998
9.026741 -12.270456 -0.70771492
9.0350914 -12.272829 -0
8.9934778 -12.216304 0.70477265
7.731339 -10.501876 -1.5250224
9.0385637 -12.277546 -1.0660887
9.0362921 -12.274461 -0.35387304
8.9981146 -12.222601 0.35237795
8.650588 -11.75054 -1.361306
9.0386114 -12.277612 -0.70830953
9.0441236 -12.285098 -0
8.9991226 -12.223971 0.70521504
7.7293839 -10.49922 -1.5246367
9.0438776 -12.284764 -1.0667155
9.0434694 -12.284209 -0.35415411
9.0040407 -12.230652 0.35261005
8.651391 -11.743041 -1.360787
9.049262 -12.283094 -0.70880806
9.0548754 -12.290714 -0
9.0141153 -12.226449 0.70572078
7.7344556 -10.490761 -1.5241921
9.0573769 -12.285128 -1.0672958
9.0573959 -12.285154 -0.35436356
9.0232897 -12.229953 0.35286209
8.6573706 -11.733994 -1.3604387
9.0639038 -12.285001 -0.70928305
9.0750036 -12.291061 -0
9.0285587 -12.228157 0.70618308
7.7400031 -10.482955 -1.5238427
9.0697708 -12.283974 -1.0677454
9.0748978 -12.281944 -0.35454488
9.0379753 -12.231974 0.35310236
8.6633873 -11.725007 -1.3600975
9.0825872 -12.283378 -0.70973808
9.087925 -12.290596 -0
9.0441694 -12.231421 0.70673603
7.7493615 -10.472661 -1.5235251
9.0902319 -12.284743 -1.0686392
9.0870237 -12.280409 -0.35468361
9.0533419 -12.23489 0.35336894
8.6742725 -11.714052 -1.3598799
9.0947828 -12.281925 -0.7100209
9.1017103 -12.291281 -0
9.0632687 -12.230439 0.70722729
7.7537603 -10.463321 -1.5229534
9.1022863 -12.283091 -1.0690479
9.1031122 -12.275247 -0.35480964
9.0724297 -12.233872 0.35361373
8.6808729 -11.70587 -1.3596331
9.109724 -12.284161 -0.71051764
9.1175795 -12.285789 -0
9.0787115 -12.233415 0.7077657
7.759491 -10.455787 -1.5226449
9.1239262 -12.285378 -1.0700779
9.1162434 -12.275033 -0.35498735
9.088233 -12.237317 0.35389662
8.6917114 -11.694868 -1.3594118
9.1264925 -12.279876 -0.71082217
9.1305122 -12.285284 -0
9.0937901 -12.235874 0.70827514
7.7673564 -10.443515 -1.5220414
9.1402912 -12.289479 -1.0709908
9.1294718 -12.274933 -0.35516867
9.1071053 -12.235938 0.35413235
8.6975975 -11.68574 -1.3590562
9.1417036 -12.282423 -0.71133882
9.1428413 -12.283952 -0
9.1133347 -12.235388 0.708799
7.7720728 -10.434635 -1.5215379
9.1571083 -12.294158 -1.0719553
9.1500235 -12.275699 -0.35546789
9.1223202 -12.238532 0.35439166
8.7033825 -11.676484 -1.3586861
9.1605101 -12.280819 -0.71180111
9.1610956 -12.281603 -0
9.1281509 -12.237436 0.70928669
7.776711 -10.425662 -1.5210207
9.1811666 -12.299551 -1.0732633
9.1647816 -12.2776 -0.35570815
9.1363516 -12.239514 0.35460472
8.7126026 -11.663344 -1.358218
9.1757135 -12.283298 -0.71231598
9.1749268 -12.282246 -0
9.1477823 -12.236997 0.70981604
7.7849994 -10.414001 -1.5205079
9.2007866 -12.3079 -1.0745522
9.1831007 -12.284243 -0.35608622
9.15555 -12.238478 0.35485226
8.7181578 -11.653802 -1.3578151
9.1918831 -12.287045 -0.71290517
9.1957197 -12.283232 -0
9.1621466 -12.238385 0.71026742
7.7891755 -10.404432 -1.5199045
9.2222452 -12.309705 -1.0755522
9.2052088 -12.286964 -0.35644436
9.1698523 -12.239771 0.3550753
8.7238894 -11.644506 -1.3574414
9.2125158 -12.287777 -0.713507
9.2121668 -12.287311 -0
9.1773825 -12.240915 0.71078593
7.7978315 -10.393291 -1.5194689
9.2415714 -12.31757 -1.0768028
9.2237682 -12.293842 -0.3568306
9.1854725 -12.2428 0.35534909
8.7342567 -11.632938 -1.3571584
9.2289171 -12.291764 -0.71411252
9.2298889 -12.293059 -0
9.1960325 -12.239065 0.71123731
7.8019624 -10.383688 -1.5188609
9.2584076 -12.322082 -1.077762
9.2472219 -12.298253 -0.35723951
9.2053528 -12.242569 0.35562202
8.7402725 -11.624041 -1.3568319
9.2452822 -12.295672 -0.71471435
9.2512131 -12.294623 -0
9.2109566 -12.241123 0.71173042
7.8067369 -10.374952 -1.51838
9.2772131 -12.320224 -1.0784487
9.2643566 -12.30315 -0.35756955
9.2215557 -12.24631 0.35591757
8.7509661 -11.612925 -1.3566033
9.2668419 -12.297515 -0.71538514
9.2687979 -12.30011 -0
9.2261219 -12.243478 0.71224165
7.8152847 -10.363705 -1.5179309
9.2925453 -12.322673 -1.0792308
9.2795744 -12.305471 -0.35782522
9.2417612 -12.246434 0.35620227
8.7565403 -11.603459 -1.3562114
9.2804308 -12.297676 -0.71577126
9.283288 -12.301462 -0
9.2460871 -12.243276 0.71279275
7.8204136 -10.355459 -1.5175225
9.3092718 -12.326941 -1.0801735
9.2969294 -12.301667 -0.35799748
9.257349 -12.249295 0.35647339
8.7628803 -11.595016 -1.3559393
9.3009071 -12.298004 -0.71635681
9.3039885 -12.302078 -0
9.2617645 -12.246248 0.71334207
7.8258858 -10.347676 -1.5171822
9.326808 -12.323308 -1.0807103
9.3096151 -12.300591 -0.35815525
9.2728739 -12.252047 0.35674176
8.7725058 -11.582516 -1.355551
9.3153801 -12.299284 -0.71681005
9.3163948 -12.300624 -0
9.282196 -12.246587 0.71392757
7.8349833 -10.337188 -1.5168464
9.3465185 -12.331451 -1.0819964
9.3208895 -12.297638 -0.35825861
9.2917881 -12.250357 0.35697567
8.7791786 -11.574529 -1.3553332
9.3293409 -12.299866 -0.71722335
9.3345375 -12.2978 -0
9.2983408 -12.250112 0.71451133
7.8402281 -10.329119 -1.5164653
9.36796 -12.33289 -1.0829829
9.3405895 -12.296857 -0.35852063
9.3073778 -12.253134 0.35724586
8.7857046 -11.566353 -1.3550937
9.348875 -12.29885 -0.71773458
9.3484163 -12.298246 -0
9.3138323 -12.25275 0.71504432
7.8491845 -10.318464 -1.5161068
9.3886232 -12.342195 -1.0843753
9.356596 -12.300093 -0.35880533
9.3221712 -12.254838 0.35748523
8.7963753 -11.555259 -1.3548725
9.364337 -12.301354 -0.71826214
9.363246 -12.299922 -0
9.3337755 -12.252333 0.71559
7.8541527 -10.31005 -1.5156759
9.4066353 -12.347975 -1.0854598
9.3782549 -12.30181 -0.35914171
9.3417473 -12.253921 0.35774362
8.8033085 -11.54763 -1.3546983
9.3794518 -12.303379 -0.71876246
9.3822346 -12.298122 -0
9.3492384 -12.254872 0.71611935
7.8591599 -10.301695 -1.5152539
9.4327078 -12.355338 -1.0869749
9.3965101 -12.307924 -0.35951164
9.3572426 -12.256491 0.35800928
8.8135071 -11.535933 -1.3544079
9.4000063 -12.303596 -0.71934986
9.4007778 -12.304606 -0
9.3645191 -12.257149 0.71663421
7.8675399 -10.290316 -1.5147911
9.4490709 -12.358872 -1.0878658
9.4138765 -12.31284 -0.3598471
9.3767643 -12.255431 0.35826495
8.8196201 -11.527244 -1.3541104
9.4167023 -12.30763 -0.71996987
9.4213762 -12.304835 -0
9.3838491 -12.255824 0.7171309
7.8727407 -10.282233 -1.51441
9.4685469 -12.366443 -1.0891138
9.4332972 -12.3115 -0.36009642
9.3924675 -12.258213 0.35853785
8.8252535 -11.517935 -1.3537403
9.4365664 -12.306866 -0.72050279
9.4389725 -12.310003 -0
9.3997402 -12.258839 0.71769106
7.8776979 -10.27384 -1.5139835
9.4898176 -12.367372 -1.0900702
9.4498301 -12.315259 -0.36039928
9.4075842 -12.260203 0.3587881
8.8352013 -11.505941 -1.3534174
9.4534254 -12.311045 -0.72113371
9.4551296 -12.313263 -0
9.4220352 -12.261302 0.71841258
7.8864193 -10.262939 -1.5135933
9.5077333 -12.372825 -1.0911356
9.4652071 -12.317484 -0.36065766
9.4278221 -12.259973 0.35907009
8.8403873 -11.496071 -1.3529819
9.4689159 -12.313412 -0.72165942
9.4761896 -12.313973 -0
9.4415159 -12.268915 0.71924472
7.8915949 -10.254848 -1.5132122
9.5319548 -12.377496 -1.0924273
9.4857969 -12.317558 -0.36095053
9.4430742 -12.262082 0.35932487
8.8466072 -11.487554 -1.3527062
9.4883795 -12.31202 -0.72215974
9.4892912 -12.313203 -0
9.4646559 -12.281237 0.72035414
7.89996 -10.243506 -1.5127585
9.5519447 -12.385557 -1.093727
9.5017633 -12.320489 -0.36123067
9.4638071 -12.26242 0.35962495
8.8563509 -11.475327 -1.3523577
9.5041246 -12.31466 -0.72270364
9.5058327 -12.316873 -0
9.4922514 -12.290403 0.72147453
7.9049988 -10.235255 -1.5123547
9.5732365 -12.395262 -1.095174
9.5222063 -12.320295 -0.36151719
9.4835901 -12.270332 0.3600511
8.8623619 -11.466557 -1.352053
9.5194731 -12.316759 -0.72321665
9.5234814 -12.31306 -0
9.5154877 -12.302725 0.72258759
7.9098635 -10.226789 -1.5119191
9.5983524 -12.400914 -1.0965608
9.5360155 -12.320377 -0.36171484
9.5031977 -12.277976 0.36047
8.8729362 -11.455425 -1.3518353
9.5403223 -12.317057 -0.72382033
9.5375767 -12.313511 -0
9.5371208 -12.312922 0.72357744
7.9186196 -10.215984 -1.5115471
9.6189909 -12.409672 -1.0979288
9.5512896 -12.322329 -0.3619678
9.5310326 -12.287334 0.36103755
8.8797388 -11.447691 -1.3516538
9.5568113 -12.320567 -0.72441858
9.5553761 -12.309842 -0
9.5593891 -12.315011 0.72428805
7.9241319 -10.20837 -1.5112386
9.6355371 -12.413111 -1.098828
9.569315 -12.318919 -0.36216184
9.5533123 -12.298318 0.36155617
8.8864164 -11.4398 -1.3514543
9.5775871 -12.320688 -0.72501504
9.5707045 -12.311834 -0
9.5745935 -12.316837 0.72478843
7.9336028 -10.198504 -1.5110072
9.655901 -12.412487 -1.0996672
9.5832119 -12.319048 -0.36236221
9.574604 -12.307982 0.36203671
8.8977709 -11.429689 -1.35136
9.5938082 -12.323791 -0.72559148
9.583497 -12.310544 -0
9.5883255 -12.307881 0.72485185
7.9392662 -10.191096 -1.5107304
9.6701918 -12.412967 -1.1003076
9.6004019 -12.323383 -0.36268678
9.5965157 -12.309529 0.36237761
8.9039545 -11.421175 -1.3510878
9.6088152 -12.325306 -0.72607553
9.6056814 -12.312421 -0
9.5980682 -12.302661 0.72493887
7.9454484 -10.184358 -1.5105535
9.6891804 -12.410512 -1.1009887
9.620223 -12.322188 -0.36294791
9.6128693 -12.312769 0.36267048
8.9104652 -11.413086 -1.3508664
9.6279392 -12.323201 -0.72654504
9.6212015 -12.314577 -0
9.6012497 -12.28904 0.72453099
7.9546275 -10.174137 -1.5102721
9.709218 -12.418296 -1.1022804
9.6385651 -12.327929 -0.36331511
9.624074 -12.300543 0.362607
8.9194641 -11.399981 -1.3504201
9.6420708 -12.323545 -0.72696203
9.6385336 -12.319024 -0
9.6125011 -12.276919 0.72440952
7.9600062 -10.166382 -1.5099455
9.7279034 -12.424309 -1.1034166
9.6621637 -12.331477 -0.36371768
9.6347055 -12.296433 0.36268407
8.9256935 -11.391546 -1.3501589
9.6573858 -12.325379 -0.72746783
9.6571169 -12.316179 -0
9.6181812 -12.266521 0.72419196
7.9665275 -10.160089 -1.5098366
9.7545481 -12.431498 -1.1049616
9.6793528 -12.335666 -0.36404046
9.6386595 -12.283806 0.36251
8.9336786 -11.377176 -1.3495638
9.67665 -12.323361 -0.7279464
9.6679811 -12.312322 -0
9.6290798 -12.26278 0.7243678
7.9756522 -10.149819 -1.5095507
9.7723007 -12.436235 -1.1059889
9.6948872 -12.337718 -0.36430067
9.6499243 -12.271679 0.36245015
8.940033 -11.368919 -1.3493243
9.6924868 -12.325805 -0.72849023
9.6799755 -12.301055 -0
9.6457529 -12.257565 0.72465605
7.9820647 -10.143395 -1.5094237
9.7857523 -12.435473 -1.1065284
9.7086229 -12.328602 -0.36433151
9.658514 -12.26497 0.36245108
8.9442139 -11.357908 -1.3487582
9.712224 -12.324322 -0.72900331
9.6853447 -12.290214 -0
9.6639204 -12.263026 0.72537756
7.9914808 -10.133508 -1.5091969
9.8010368 -12.428095 -1.1067846
9.7166719 -12.321115 -0.36431065
9.6727324 -12.265399 0.36266321
8.9537897 -11.345605 -1.3484099
9.7256365 -12.323634 -0.72936404
9.6911888 -12.279984 -0
9.6863575 -12.265057 0.72609729
7.9976397 -10.126769 -1.5090244
9.8042049 -12.414277 -1.1061633
9.7176228 -12.304645 -0.36402413
9.6904383 -12.261422 0.36284545
8.9583082 -11.335049 -1.3478982
9.7337294 -12.316198 -0.72932601
9.7052784 -12.271391 -0
9.7058105 -12.272064 0.72691309
8.0032635 -10.119357 -1.5087522
9.8112993 -12.396548 -1.1054984
9.728055 -12.291369 -0.36393255
9.7115259 -12.270485 0.36331421
8.9635401 -11.325406 -1.3474954
9.7466459 -12.306028 -0.7293278
9.7194939 -12.271748 -0
9.7261009 -12.280089 0.72779047
8.0125303 -10.109299 -1.5085026
9.8067112 -12.372991 -1.104008
9.7337713 -12.280963 -0.36382559
9.7344418 -12.273005 0.3636905
8.9723978 -11.312235 -1.3470455
9.7511606 -12.294086 -0.72902322
9.7362394 -12.275272 -0
9.7487564 -12.282246 0.7285229
8.0186453 -10.102517 -1.5083257
9.8032579 -12.350911 -1.1026483
9.7523584 -12.27798 -0.36403954
9.7545204 -12.280702 0.36412024
8.9779949 -11.303075 -1.3467008
9.7613344 -12.280477 -0.72882199
9.7618256 -12.281094 -0
9.7666035 -12.287105 0.72921538
8.0233793 -10.094001 -1.5078901
9.7987452 -12.318711 -1.1006891
9.7674189 -12.279328 -0.36428162
9.7736664 -12.287184 0.36451465
8.9874287 -11.290655 -1.3463416
9.771801 -12.27604 -0.72896343
9.7817574 -12.288548 -0
9.7836113 -12.290877 0.72984445
8.0322771 -10.083499 -1.5075771
9.7992334 -12.301688 -1.0997789
9.7884712 -12.288177 -0.36474675
9.796752 -12.289767 0.36489546
8.9928846 -11.281336 -1.3459787
9.7867899 -12.27727 -0.729442
9.8057528 -12.292253 -0
9.8036318 -12.289594 0.73037744
8.036581 -10.074462 -1.5070643
9.7994843 -12.284395 -1.0988443
9.812151 -12.291471 -0.36514932
9.8137598 -12.293485 0.36520916
8.9988651 -11.272684 -1.3456957
9.8067532 -12.275917 -0.72997135
9.8251333 -12.298924 -0
9.8200264 -12.292532 0.73095936
8.0449219 -10.063283 -1.5066515
9.8173075 -12.280335 -1.0994002
9.8317766 -12.298435 -0.36556002
9.8302402 -12.296514 0.36550292
9.0084782 -11.260521 -1.3453691
9.8289957 -12.286161 -0.73098838
9.842721 -12.303318 -0
9.8403072 -12.291502 0.73151046
8.0492048 -10.054241 -1.5061388
9.8341579 -12.283821 -1.1003267
9.8551006 -12.301177 -0.36594808
9.849802 -12.294563 0.36575136
9.0149517 -11.2525 -1.3451623
9.8483305 -12.292726 -0.73178786
9.8641768 -12.303701 -0
9.8564768 -12.294098 0.73207426
8.0550814 -10.047196 -1.5059255
9.8585997 -12.287953 -1.1016209
9.8729239 -12.305807 -0.36629081
9.8652496 -12.296243 0.36600614
9.0214176 -11.244473 -1.3449554
9.8721666 -12.296068 -0.73260182
9.8803444 -12.306254 -0
9.8730698 -12.297194 0.73266888
8.0648699 -10.037848 -1.5057894
9.8806725 -12.297867 -1.1031278
9.8906107 -12.310237 -0.36662811
9.8843117 -12.293606 0.36623549
9.0325546 -11.234232 -1.3448611
9.890748 -12.301611 -0.73334324
9.8960323 -12.308182 -0
9.8940878 -12.296971 0.73327255
8.0717297 -10.032034 -1.5057622
9.8996372 -12.303868 -1.1042858
9.9114323 -12.309728 -0.36692187
9.899725 -12.295188 0.36648846
9.0382481 -11.225258 -1.3445418
9.9119978 -12.301638 -0.73396325
9.9151659 -12.305569 -0
9.9105043 -12.299785 0.73385268
8.0794621 -10.027303 -1.5058984
9.92208 -12.305356 -1.1053513
9.9284801 -12.313293 -0.36723465
9.9153662 -12.297029 0.36674958
9.0492172 -11.214818 -1.3444257
9.9288168 -12.304918 -0.73457241
9.9305 -12.307004 -0
9.9317875 -12.299812 0.73447448
8.0898113 -10.018656 -1.5058711
9.9386005 -12.308249 -1.1062341
9.944459 -12.315505 -0.36750758
9.9356012 -12.295752 0.36702159
9.0547466 -11.205654 -1.3440846
9.9454241 -12.307908 -0.73516518
9.9504309 -12.305315 -0
9.9482975 -12.302676 0.73506004
8.0963163 -10.012403 -1.5057803
9.9541492 -12.309913 -1.107008
9.9650145 -12.314556 -0.36779046
9.951725 -12.298132 0.36729994
9.0608301 -11.197184 -1.343827
9.9664602 -12.307554 -0.73576707
9.966198 -12.30723 -0
9.964201 -12.304765 0.73560029
8.1055756 -10.002411 -1.5055535
9.9727259 -12.306506 -1.1076401
9.9812555 -12.317032 -0.36807242
9.9683475 -12.301103 0.36759642
9.070322 -11.184939 -1.3434968
9.983407 -12.310898 -0.73638344
9.9837189 -12.311282 -0
9.9850483 -12.30414 0.73618764
8.1110897 -9.9949427 -1.5052813
9.9873066 -12.306923 -1.108305
10.00183 -12.316031 -0.3683553
9.9887571 -12.299933 0.36787388
9.0763626 -11.176431 -1.3432355
10.000485 -12.314375 -0.73700887
10.004858 -12.310976 -0
10.000723 -12.305887 0.73670971
8.1148596 -9.9853325 -1.504687
10.005647 -12.303169 -1.10891
10.018261 -12.31868 -0.36864364
10.005177 -12.302591 0.36816218
9.0822487 -11.167738 -1.3429525
10.021282 -12.313611 -0.73759079
10.022746 -12.315411 -0
10.017292 -12.308708 0.73729712
8.1232786 -9.9743328 -1.5043104
10.020164 -12.303463 -1.1095667
10.034947 -12.321614 -0.36894101
10.026049 -12.301916 0.36845595
9.0920467 -11.1559 -1.3426731
10.037838 -12.316381 -0.73817635
10.039115 -12.317948 -0
10.037993 -12.307797 0.73787177
8.127224 -9.9649611 -1.5037522
10.03449 -12.3035 -1.1102015
10.05555 -12.320539 -0.36922389
10.042043 -12.303989 0.36872795
9.0986528 -11.148103 -1.3424989
10.058579 -12.315474 -0.73875284
10.060707 -12.318078 -0
10.054803 -12.31085 0.73847544
8.1331472 -9.9580231 -1.5035617
10.053879 -12.300951 -1.1109209
10.071785 -12.322859 -0.36950406
10.057525 -12.305412 0.36898091
9.1083765 -11.13619 -1.3422123
10.074389 -12.317268 -0.73928219
10.075363 -12.31846 -0
10.074981 -12.309221 0.73901027
8.1426125 -9.948329 -1.5033847
10.069448 -12.302463 -1.1116921
10.088622 -12.325888 -0.36980599
10.078942 -12.305296 0.36929372
9.1148176 -11.128204 -1.3420163
10.090972 -12.319983 -0.73986775
10.096429 -12.317871 -0
10.092007 -12.312475 0.73962843
8.1508598 -9.9442329 -1.5036253
10.085051 -12.303989 -1.1124659
10.109028 -12.324465 -0.37008071
10.094589 -12.306862 0.36955211
9.1204634 -11.119252 -1.3417042
10.111171 -12.318306 -0.74040252
10.111073 -12.318187 -0
10.107804 -12.314204 0.74015599
8.1612196 -9.9356318 -1.5036162
10.106389 -12.30372 -1.1133978
10.126256 -12.327906 -0.37039623
10.111954 -12.310494 0.36987308
9.1312628 -11.108673 -1.3415809
10.128069 -12.321342 -0.74100983
10.1286 -12.321988 -0
10.129419 -12.314219 0.74079412
8.1695585 -9.9316397 -1.5038748
10.122353 -12.305629 -1.1142098
10.147053 -12.326883 -0.37068453
10.133476 -12.31039 0.37018859
9.136445 -11.099173 -1.3412036
10.144579 -12.323878 -0.74158812
10.148825 -12.32027 -0
10.146499 -12.317446 0.74141413
8.1752071 -9.9243765 -1.5036389
10.143785 -12.305395 -1.1151499
10.164002 -12.329921 -0.3709892
10.151134 -12.314312 0.37051952
9.1470728 -11.088399 -1.3410584
10.166096 -12.323693 -0.74221718
10.166671 -12.32439 -0
10.164258 -12.321465 0.74208307
8.1844349 -9.9144039 -1.5034256
10.159443 -12.306875 -1.1159265
10.180563 -12.332459 -0.37127933
10.172009 -12.313339 0.37081057
9.152607 -11.079342 -1.3407354
10.182475 -12.326009 -0.74278462
10.182263 -12.325752 -0
10.185061 -12.320379 0.74265951
8.1879435 -9.904561 -1.5027995
10.17563 -12.308969 -1.1167603
10.201612 -12.331631 -0.3715758
10.18944 -12.316916 0.37113243
9.1583815 -11.070581 -1.3404487
10.203962 -12.325709 -0.74341005
10.203535 -12.325192 -0
10.202394 -12.323815 0.74329585
8.1919613 -9.8953457 -1.5022687
10.195052 -12.306199 -1.1174769
10.21829 -12.334249 -0.37186956
10.205784 -12.319153 0.37141442
9.1673632 -11.057841 -1.3400677
10.220533 -12.328195 -0.74399018
10.218943 -12.326276 -0
10.222968 -12.322374 0.74385422
8.1980581 -9.8816252 -1.5014882
10.211429 -12.308466 -1.1183298
10.235277 -12.337212 -0.3721742
10.226562 -12.317953 0.37170091
9.1724968 -11.048326 -1.3396904
10.236939 -12.330454 -0.74455762
10.240008 -12.325393 -0
10.238974 -12.324148 0.74439263
8.2018309 -9.8721399 -1.5009166
10.231637 -12.306575 -1.1191308
10.25653 -12.336516 -0.37247702
10.243398 -12.320721 0.37200013
9.1767015 -11.037704 -1.3391788
10.258356 -12.329955 -0.74517578
10.25708 -12.328421 -0
10.255985 -12.327106 0.74500358
8.2087879 -9.8594904 -1.5002995
10.249576 -12.310659 -1.1201527
10.273985 -12.339976 -0.372798
10.260092 -12.32329 0.37229389
9.1854925 -11.024771 -1.338776
10.275205 -12.332684 -0.74577403
10.274811 -12.332211 -0
10.276361 -12.32532 0.74554563
8.2124643 -9.8499126 -1.4997143
10.266827 -12.313886 -1.1210983
10.295083 -12.339016 -0.37309447
10.280997 -12.322134 0.37258402
9.1897478 -11.014234 -1.3382752
10.292286 -12.335664 -0.74638855
10.297483 -12.333138 -0
10.293591 -12.328476 0.74617106
8.2173252 -9.8417645 -1.4993467
10.289136 -12.314402 -1.1221255
10.312484 -12.342344 -0.37341273
10.29766 -12.324604 0.37287596
9.1986322 -11.001442 -1.3378906
10.313858 -12.335237 -0.74701583
10.315587 -12.337304 -0
10.309954 -12.330567 0.74673301
8.225112 -9.8301487 -1.4988885
10.306232 -12.317376 -1.123052
10.329142 -12.344756 -0.37370378
10.318608 -12.323424 0.37316701
9.2030649 -10.99114 -1.3374189
10.330935 -12.338145 -0.74762857
10.33801 -12.337843 -0
10.331507 -12.330082 0.74735844
8.2298794 -9.8219061 -1.4985074
10.323413 -12.320423 -1.1239866
10.350845 -12.344406 -0.37402111
10.335163 -12.325704 0.37345442
9.2088861 -10.982508 -1.3371503
10.352528 -12.337663 -0.74825579
10.355886 -12.341664 -0
10.348465 -12.33282 0.74796212
8.2342653 -9.8132162 -1.4980582
10.343601 -12.31829 -1.1247796
10.367698 -12.346987 -0.37431848
10.352003 -12.328295 0.37375182
9.2174301 -10.969344 -1.3367223
10.369573 -12.34047 -0.74886495
10.373421 -12.345048 -0
10.370464 -12.332788 0.74861836
8.2423649 -9.8020039 -1.4976634
10.359873 -12.320191 -1.1256133
10.384911 -12.349968 -0.37462857
10.373405 -12.327547 0.37405828
9.2230072 -10.960437 -1.336421
10.38728 -12.344035 -0.7495212
10.394998 -12.344458 -0
10.387543 -12.335604 0.74922931
8.2458076 -9.7922115 -1.4970464
10.379397 -12.317203 -1.1263328
10.406369 -12.34921 -0.37493593
10.390692 -12.330605 0.37437108
9.2281008 -10.950961 -1.3360509
10.409056 -12.343652 -0.75015932
10.412528 -12.347768 -0
10.405635 -12.339595 0.74991274
8.2536554 -9.7807245 -1.4966109
10.395483 -12.318828 -1.1271447
10.423526 -12.352059 -0.37524331
10.408364 -12.334092 0.37469748
9.2375307 -10.938885 -1.335757
10.426256 -12.346547 -0.75077748
10.428782 -12.349539 -0
10.42641 -12.33799 0.75047839
8.2567253 -9.7705145 -1.4959302
10.409891 -12.318443 -1.1277741
10.444525 -12.350678 -0.37553343
10.430378 -12.33395 0.3750248
9.2420759 -10.92878 -1.3353107
10.443338 -12.349277 -0.75138664
10.450565 -12.349077 -0
10.443666 -12.340924 0.75110018
8.2606363 -9.7613125 -1.4954039
10.428728 -12.314553 -1.1284173
10.461725 -12.353517 -0.37584171
10.448425 -12.337811 0.37536389
9.2518311 -10.917108 -1.3350675
10.464439 -12.347979 -0.75197399
10.467317 -12.351375 -0
10.460605 -12.343453 0.75169843
8.2676926 -9.7489281 -1.4948323
10.440574 -12.311103 -1.1287687
10.478001 -12.355234 -0.37611642
10.470209 -12.337314 0.37568212
9.2567568 -10.907474 -1.3346792
10.480934 -12.349953 -0.75253958
10.48912 -12.350857 -0
10.482214 -12.342724 0.75232202
8.2725372 -9.7408476 -1.4944783
10.452572 -12.307821 -1.1291366
10.499253 -12.354045 -0.37641472
10.488201 -12.341042 0.37601849
9.2621031 -10.898341 -1.3343527
10.502002 -12.348541 -0.75312334
10.506522 -12.353856 -0
10.499043 -12.345063 0.75291121
8.2776766 -9.733119 -1.4941789
10.465858 -12.297343 -1.1291802
10.516026 -12.356289 -0.37670666
10.505268 -12.343649 0.37632132
9.2710896 -10.885793 -1.3340044
10.518944 -12.35098 -0.75371975
10.524211 -12.357165 -0
10.520774 -12.344397 0.75354213
8.2876387 -9.7241802 -1.4941381
10.475554 -12.291338 -1.1293001
10.533084 -12.358841 -0.37700859
10.527438 -12.343487 0.37665227
9.2770967 -10.877454 -1.3337758
10.536603 -12.354233 -0.75436693
10.545413 -12.355824 -0
10.537571 -12.346636 0.75412762
8.2944002 -9.7183619 -1.4941336
10.488343 -12.280272 -1.1292919
10.554669 -12.35793 -0.37731776
10.544575 -12.346111 0.37695691
9.2817335 -10.867514 -1.3333513
10.558281 -12.353425 -0.75499237
10.562818 -12.358732 -0
10.554048 -12.348472 0.75468963
8.3051023 -9.71029 -1.4942288
10.49618 -12.272089 -1.1292129
10.572077 -12.360827 -0.37763146
10.566437 -12.345506 0.37727606
9.29144 -10.855838 -1.3331118
10.576215 -12.356931 -0.75565767
10.579876 -12.361208 -0
10.575501 -12.34737 0.75529873
8.3121815 -9.7048435 -1.4942833
10.504212 -12.264136 -1.1291556
10.593681 -12.35986 -0.37794065
10.584812 -12.349512 0.37762421
9.2963333 -10.846218 -1.3327271
10.593371 -12.359499 -0.75626683
10.601309 -12.360025 -0
10.591893 -12.349048 0.75585347
8.3191566 -9.6992731 -1.4943196
10.515806 -12.251681 -1.1290221
10.611108 -12.362715 -0.37825435
10.602791 -12.353024 0.37795788
9.3054819 -10.833911 -1.3324114
10.615359 -12.358936 -0.75691217
10.618945 -12.363111 -0
10.607783 -12.350116 0.75637197
8.3287535 -9.689909 -1.4942198
10.522833 -12.242563 -1.1288587
10.628977 -12.366055 -0.37858346
10.625118 -12.352839 0.37829244
9.3106842 -10.824669 -1.3320739
10.632381 -12.361285 -0.75751042
10.641264 -12.362879 -0
10.626946 -12.346246 0.75681609
8.3347816 -9.683239 -1.4940882
10.529267 -12.232763 -1.1286325
10.650841 -12.365273 -0.3789008
10.642379 -12.35545 0.37859979
9.3166647 -10.816339 -1.331849
10.654492 -12.360785 -0.75816309
10.659022 -12.366039 -0
10.641041 -12.345179 0.7572059
8.3432961 -9.6726255 -1.4937978
10.541155 -12.220668 -1.1285344
10.669495 -12.369455 -0.37925714
10.657455 -12.355498 0.37882918
9.3256235 -10.803839 -1.3315115
10.672017 -12.363651 -0.75879574
10.67656 -12.368915 -0
10.657993 -12.338694 0.7574923
8.3486261 -9.6651545 -1.4935437
10.546679 -12.209826 -1.1282128
10.687854 -12.373263 -0.37960258
10.675164 -12.349855 0.37899873
9.3316879 -10.795619 -1.3313011
10.690267 -12.367328 -0.75947922
10.696791 -12.366148 -0
10.671072 -12.336415 0.75780958
8.35324 -9.6568584 -1.4931626
10.557648 -12.196683 -1.1280195
10.710237 -12.37296 -0.37993714
10.688231 -12.347538 0.3791565
9.336957 -10.786485 -1.3309782
10.712077 -12.36636 -0.76010823
10.711637 -12.365851 -0
10.684484 -12.334507 0.7581504
8.3608828 -9.6452618 -1.4927225
10.563174 -12.185864 -1.1277006
10.727415 -12.375336 -0.38023996
10.704916 -12.340674 0.37928978
9.3457251 -10.773792 -1.3306189
10.729733 -12.369284 -0.76074821
10.724439 -12.36318 -0
10.706169 -12.333419 0.75877219
8.3649187 -9.6363173 -1.4922415
10.568971 -12.175367 -1.1274117
10.746822 -12.371525 -0.38046843
10.719342 -12.33989 0.37949559
9.3512545 -10.764975 -1.3303359
10.750847 -12.367435 -0.76132649
10.740968 -12.356071 -0
10.719232 -12.331065 0.75908762
8.369709 -9.6282492 -1.4918967
10.579004 -12.161177 -1.1271229
10.760301 -12.369588 -0.38063979
10.735875 -12.341509 0.37977573
9.3600454 -10.752331 -1.3299839
10.765756 -12.367137 -0.76177067
10.754105 -12.353754 -0
10.736804 -12.333879 0.75972211
8.3759899 -9.6151209 -1.4912207
10.585572 -12.151585 -1.1269186
10.772473 -12.366136 -0.38076493
10.754285 -12.336558 0.37996978
9.3656578 -10.743625 -1.3297154
10.78013 -12.366207 -0.76217675
10.775279 -12.351934 -0
8.382165 -9.6086569 -1.4911255
10.592669 -12.142606 -1.1267715
10.789501 -12.359526 -0.38090909
10.770496 -12.337756 0.38023815
9.3715448 -10.735237 -1.3294868
10.798619 -12.361259 -0.7625683
10.790993 -12.352529 -0
8.3897972 -9.5970984 -1.4906944
10.603789 -12.129687 -1.1266025
10.803679 -12.358341 -0.38110492
9.3811684 -10.723574 -1.3292582
10.811382 -12.358445 -0.76286018
10.808616 -12.355282 -0
8.3962135 -9.5909185 -1.4906445
10.610971 -12.120815 -1.1264663
10.820612 -12.360287 -0.38139778
9.386961 -10.715091 -1.3290187
10.826333 -12.358114 -0.76330614
10.829093 -12.352563 -0
8.4018583 -9.5838575 -1.4904585
10.621885 -12.107677 -1.1262782
10.840272 -12.35661 -0.38163441
9.3922596 -10.70605 -1.3287103
10.847275 -12.35589 -0.76386994
8.4123259 -9.5755501 -1.4905356
10.627506 -12.097037 -1.1259785
10.857349 -12.358663 -0.38193181
9.4020271 -10.694572 -1.3285071
10.860742 -12.353824 -0.76421076
8.4170094 -9.5674028 -1.4901817
10.632937 -12.086192 -1.1256597
9.4066124 -10.684736 -1.3281007
10.881411 -12.351227 -0.76475459
8.4225845 -9.5602722 -1.4899867
10.642007 -12.070988 -1.1252809
9.4167156 -10.673655 -1.3279482
10.895581 -12.349918 -0.76514435
8.4299717 -9.54848 -1.4895238
10.647336 -12.06005 -1.124954
9.4218473 -10.664454 -1.3276217
12.762456 -14.445642 -0.89553756
8.4337063 -9.539279 -1.4890066
10.65245 -12.048877 -1.1246052
9.4283886 -10.656855 -1.3274947
12.76366 -14.416551 -0.89456224
8.4412212 -9.5276537 -1.488571
10.663253 -12.035673 -1.1244144
9.4372988 -10.644444 -1.327179
12.765076 -14.397884 -0.89395678
8.445013 -9.5185375 -1.4880674
10.669816 -12.026156 -1.124221
9.4439526 -10.63698 -1.3270701
12.765591 -14.378232 -0.89328963
8.450367 -9.5111885 -1.4878405
10.680696 -12.013055 -1.1240411
9.4487925 -10.627478 -1.3267072
12.77247 -14.355673 -0.89271861
8.4581299 -9.4998713 -1.4874549
10.687576 -12.003907 -1.123883
9.4585962 -10.616096 -1.3265222
12.770264 -14.33303 -0.89186472
8.4637527 -9.492835 -1.487278
10.694009 -11.994262 -1.1236787
9.4642963 -10.607575 -1.3262827
12.779574 -14.313275 -0.89146769
8.4683886 -9.4846954 -1.4869286
10.704253 -11.98047 -1.1234362
9.474103 -10.596209 -1.3261013
12.778406 -14.29187 -0.89069003
8.4771261 -9.4744921 -1.4867198
10.710484 -11.970613 -1.1232127
9.4804087 -10.588375 -1.325949
12.777891 -14.271231 -0.88995939
8.4812012 -9.4657393 -1.4862752
10.71629 -11.960288 -1.1229457
9.4862413 -10.580016 -1.3257312
12.783917 -14.247909 -0.88933945
8.4897614 -9.4553518 -1.4860393
10.726596 -11.946595 -1.122714
9.4959898 -10.568601 -1.3255461
12.782204 -14.226007 -0.88852906
8.4944925 -9.4473457 -1.4857126
10.732458 -11.936351 -1.1224552
9.5008678 -10.559194 -1.3251978
12.788556 -14.213105 -0.88828069
8.499217 -9.4393368 -1.4853859
10.743465 -11.923455 -1.1222999
9.5101748 -10.547303 -1.3249546
12.798703 -14.19446 -0.88795257
8.5074072 -9.4285593 -1.485091
10.749125 -11.913001 -1.122022
9.5151119 -10.537976 -1.3246173
12.80134 -14.17747 -0.88744861
8.5120106 -9.4204292 -1.4847462
10.755923 -11.903817 -1.121864
9.5206671 -10.529341 -1.3243668
12.808064 -14.155087 -0.88688666
8.5166588 -9.4123554 -1.4844104
10.765872 -11.889773 -1.1216023
9.5294418 -10.516886 -1.3240548
12.804214 -14.13099 -0.88593668
8.5242434 -9.4009314 -1.4840157
10.771841 -11.879685 -1.1213598
9.5348997 -10.508157 -1.3237935
12.794882 -14.100895 -0.8846097
8.528614 -9.3925657 -1.4836346
10.77691 -11.868614 -1.1210247
9.5399323 -10.498964 -1.3234742
12.794127 -14.070426 -0.88353831
8.5360165 -9.3809605 -1.4832127
10.787182 -11.854959 -1.1208012
9.5489836 -10.48684 -1.3232057
12.792913 -14.049374 -0.88277692
8.5404205 -9.3726473 -1.4828407
10.792253 -11.843911 -1.1204689
9.5537872 -10.477412 -1.3228574
12.794752 -14.031702 -0.8822276
8.5447655 -9.364275 -1.4824595
10.802812 -11.830588 -1.1202781
9.5628643 -10.465335 -1.3225961
12.805543 -14.014032 -0.88195932
8.5529175 -9.3535185 -1.4821737
10.809333 -11.821146 -1.1200982
9.5679369 -10.456217 -1.3222877
12.810899 -14.000253 -0.88165474
8.5574808 -9.3453989 -1.4818333
10.815925 -11.811786 -1.1199266
9.5729485 -10.44704 -1.321972
12.815822 -13.976217 -0.8809858
8.5621672 -9.3374205 -1.4815158
10.826865 -11.798903 -1.1197795
9.581358 -10.434259 -1.3216237
12.815071 -13.955828 -0.88026428
8.5703392 -9.3267059 -1.481239
10.833149 -11.789218 -1.1195778
9.5860596 -10.424762 -1.3212681
12.810919 -13.93177 -0.87931073
8.5746412 -9.3183222 -1.4808578
10.843403 -11.775602 -1.1193625
9.5910435 -10.415578 -1.3209523
12.816009 -13.908045 -0.8786599
8.5825806 -9.3073702 -1.4805448
10.848874 -11.76505 -1.1190791
9.5999403 -10.403357 -1.3206766
12.817221 -13.88989 -0.87807798
8.5874176 -9.2995806 -1.4802589
10.853807 -11.753923 -1.1187413
9.6053801 -10.394681 -1.3204262
12.820638 -13.874146 -0.87764835
8.5923538 -9.2919025 -1.4799913
10.863092 -11.73929 -1.1184306
9.6151495 -10.383418 -1.3202738
12.828452 -13.853469 -0.8771897
8.6001282 -9.2807932 -1.4796555
10.868293 -11.728474 -1.1181227
9.6207304 -10.374906 -1.3200452
12.831992 -13.8379 -0.87677091
8.6058664 -9.2739906 -1.4795285
10.873589 -11.717771 -1.1178257
9.6267271 -10.366847 -1.3198746
12.837578 -13.814879 -0.8761636
8.6099882 -9.2654514 -1.4791247
10.883625 -11.70398 -1.1175967
9.6361208 -10.355194 -1.3196751
12.840972 -13.799201 -0.87573755
8.6187868 -9.2554646 -1.4789704
10.889722 -11.694155 -1.1173843
9.6421013 -10.347127 -1.3195045
12.843607 -13.782724 -0.87526077
8.6241617 -9.2482815 -1.4787844
10.900047 -11.680694 -1.1171881
9.647625 -10.338573 -1.3192723
12.854358 -13.765332 -0.87501061
11.682266 -12.510176 0.79522508
8.6335239 -9.238905 -1.47873
10.906363 -11.671116 -1.1170001
9.6574097 -10.327357 -1.3191308
12.856502 -13.748374 -0.87450302
11.683869 -12.485656 0.79444373
8.6392298 -9.2320824 -1.4786029
10.913177 -11.662077 -1.1168638
9.6631289 -10.319022 -1.3189276
12.860496 -13.733415 -0.87412232
11.6877 -12.472285 0.79411197
8.646203 -9.226615 -1.4786937
10.923518 -11.648652 -1.1166731
11.732659 -12.511506 0.39822015
9.6728649 -10.307763 -1.3187824
12.863149 -13.707448 -0.87332648
11.691252 -12.458632 0.79376209
8.6545057 -9.2161131 -1.4784622
10.930634 -11.639944 -1.1165695
11.730297 -12.482764 0.39769611
9.6783276 -10.299166 -1.3185465
12.863389 -13.68854 -0.87269378
11.760322 -12.505963 -0
11.69932 -12.441094 0.7934249
8.6600609 -9.209136 -1.4783125
10.936035 -11.629415 -1.1162916
11.737511 -12.472979 0.39764532
9.6844492 -10.291273 -1.3184015
12.864716 -13.661257 -0.87181276
11.767068 -12.495646 -0
11.702947 -12.427554 0.7930823
8.6651049 -9.2016191 -1.4780766
10.946764 -11.616425 -1.1161444
11.737217 -12.455233 0.39734069
9.6935663 -10.279371 -1.3181765
12.868307 -13.645969 -0.87141031
11.770589 -12.481915 -0
11.714856 -12.414129 0.79300797
8.672925 -9.1906214 -1.4777681
10.951609 -11.605322 -1.1158121
11.819991 -12.525538 -0.39984673
11.748108 -12.440662 0.39726815
9.6992979 -10.271074 -1.3179805
12.869954 -13.628642 -0.87087733
11.780488 -12.466231 -0
11.726521 -12.409123 0.79321098
8.6781139 -9.1832676 -1.4775593
10.961882 -11.591866 -1.1156213
11.812225 -12.491079 -0.39914134
11.752417 -12.427833 0.39712039
9.7044621 -10.262181 -1.3177084
12.882395 -13.61323 -0.87075406
11.784275 -12.452811 -0
11.744864 -12.411165 0.79386544
8.6863117 -9.1726818 -1.4773189
10.967238 -11.581324 -1.1153433
11.81901 -12.480788 -0.39907607
11.768917 -12.419204 0.39723825
9.713438 -10.25015 -1.3174689
12.035965 -12.701008 -0.81294209
11.79173 -12.443277 -0
11.7752 -12.41715 0.79503655
8.6914854 -9.1653204 -1.4771103
10.974114 -11.572392 -1.1152207
11.825218 -12.461181 -0.39884487
11.785165 -12.418973 0.39749393
9.7184229 -10.241081 -1.317175
11.847596 -12.484762 -0.79963028
11.805399 -12.431602 -0
11.805604 -12.431817 0.79650313
8.6963854 -9.1576748 -1.4768561
10.984375 -11.558945 -1.1150327
11.833673 -12.452667 -0.3988367
11.810403 -12.428181 0.39805242
9.7276678 -10.229348 -1.3169754
11.857706 -12.469238 -0.79943091
11.823792 -12.433576 -0
11.840847 -12.451509 0.79829425
8.7044191 -9.1469326 -1.476593
10.991179 -11.549946 -1.1149046
11.841207 -12.443187 -0.39879772
11.842102 -12.435432 0.39868167
9.7329025 -10.220554 -1.3167177
11.861485 -12.455786 -0.79909915
11.850443 -12.435496 -0
11.881552 -12.468142 0.80015785
8.7091436 -9.1391115 -1.4763117
10.997896 -11.540859 -1.1147684
11.863016 -12.439993 -0.3990933
11.873634 -12.451128 0.39945051
9.7392836 -10.21297 -1.3166162
11.874926 -12.443781 -0.79912633
11.880049 -12.44915 -0
11.912559 -12.483217 0.80165887
8.7169943 -9.128191 -1.4760213
11.008953 -11.528265 -1.1146649
11.882379 -12.442892 -0.39945233
11.904413 -12.465966 0.4001931
9.7476625 -10.200347 -1.3163041
11.886359 -12.438366 -0.79931122
11.911811 -12.464999 -0
11.943235 -12.489151 0.80284268
8.7216759 -9.1203365 -1.4757354
11.014897 -11.51838 -1.1144524
11.911035 -12.455479 -0.40012327
11.936253 -12.47313 0.40082413
9.7533827 -10.192078 -1.3161154
11.905831 -12.44134 -0.80003637
11.948174 -12.476866 -0
11.961694 -12.490984 0.80349714
8.7266188 -9.1127605 -1.475495
11.026145 -11.505995 -1.1143706
11.943985 -12.463779 -0.4007915
11.961899 -12.482472 0.40139261
9.7579393 -10.182598 -1.3157707
11.924229 -12.434471 -0.80039716
11.976699 -12.489187 -0
11.973517 -12.485869 0.80370563
8.7341146 -9.1014891 -1.4751501
11.031719 -11.495736 -1.1141226
11.976127 -12.479867 -0.40157756
11.988192 -12.483713 0.40183598
9.7670622 -10.170775 -1.3155639
11.948582 -12.442467 -0.80144858
12.002948 -12.49908 -0
11.987559 -12.474337 0.80377084
8.7385578 -9.0934038 -1.474828
11.038392 -11.486627 -1.1139864
12.009653 -12.488599 -0.40226302
12.00849 -12.487389 0.40222403
9.7719765 -10.161683 -1.3152699
12.01745 -12.487979 -0.80519032
12.028842 -12.499817 -0
11.997375 -12.467117 0.80384517
8.7429676 -9.085288 -1.4745014
11.047253 -11.471777 -1.1136676
12.03725 -12.499818 -0.40289497
12.028689 -12.490929 0.40260845
9.7813168 -10.150101 -1.3150958
12.116222 -12.573038 -0.81121987
12.047052 -12.501261 -0
12.009189 -12.461969 0.80405366
8.7503757 -9.0739489 -1.4741474
11.054609 -11.463388 -1.1136022
12.062943 -12.509008 -0.40346253
12.052909 -12.489875 0.4029811
9.7874279 -10.142262 -1.3149651
12.143476 -12.583726 -0.81245625
12.072212 -12.501143 -0
12.028819 -12.456207 0.8044942
8.7553339 -9.0664139 -1.4739161
11.060065 -11.453033 -1.113346
12.08879 -12.509568 -0.40388867
12.074977 -12.495274 0.40342718
9.7928038 -10.133664 -1.3147366
12.195274 -12.610946 -0.81503779
12.090686 -12.502792 -0
12.046355 -12.456951 0.80508518
8.7633667 -9.0557346 -1.4736711
11.071484 -11.440857 -1.1132888
12.110394 -12.514427 -0.40431845
12.097439 -12.501041 0.40388596
9.8023281 -10.122286 -1.3145914
12.242269 -12.641869 -0.81758845
12.113352 -12.508744 -0
12.070771 -12.45607 0.80584478
8.768796 -9.0486956 -1.4735214
11.078411 -11.432034 -1.1131825
12.134638 -12.513232 -0.40469018
12.123356 -12.501598 0.40431389
9.8075514 -10.113542 -1.3143446
12.290561 -12.67402 -0.8202225
12.137897 -12.507854 -0
12.090416 -12.458925 0.80657536
8.7742729 -9.041708 -1.4733807
11.089073 -11.419085 -1.1130518
12.154144 -12.515852 -0.4050492
12.146908 -12.5084 0.40480804
9.8132 -10.105242 -1.3141559
12.303309 -12.660611 -0.82018811
12.161408 -12.514588 -0
12.111294 -12.463018 0.80738753
8.7831955 -9.0319586 -1.47329
11.096554 -11.410837 -1.1130027
12.172436 -12.517191 -0.40536746
12.172283 -12.508295 0.40521696
9.8214169 -10.092534 -1.3138403
12.315764 -12.655738 -0.82042921
12.178942 -12.515138 -0
12.135609 -12.461902 0.80813801
8.7884979 -9.0247965 -1.4731221
11.103049 -11.40158 -1.1128556
12.19633 -12.515512 -0.40572649
12.190252 -12.509275 0.40552431
9.8274021 -10.084589 -1.3136988
12.339009 -12.653087 -0.82109451
12.205459 -12.516136 -0
12.157191 -12.46664 0.80899549
8.7937393 -9.0175753 -1.4729451
11.114003 -11.388943 -1.1127574
12.213001 -12.515128 -0.40599033
12.209101 -12.511131 0.40586069
9.8354578 -10.071733 -1.313365
12.35013 -12.646814 -0.8212468
12.221753 -12.515353 -0
12.177287 -12.469819 0.8097533
8.8014965 -9.0066414 -1.4726638
11.119936 -11.379118 -1.1125559
12.242345 -12.510204 -0.40638474
12.236063 -12.503785 0.40617621
9.8446932 -10.060093 -1.3131908
12.368361 -12.638978 -0.82157856
12.252143 -12.511477 -0
12.207218 -12.465601 0.81058538
8.8090229 -8.9954786 -1.4723462
11.134559 -11.362301 -1.1124305
12.259932 -12.510692 -0.4066785
12.253973 -12.504611 0.40648085
9.8488283 -10.050273 -1.3128061
12.384076 -12.628553 -0.82174349
12.271049 -12.513296 -0
12.226873 -12.468247 0.81131232
8.8165903 -8.9843664 -1.4720377
11.139568 -11.351548 -1.1121389
12.280753 -12.514449 -0.40707925
12.278307 -12.503224 0.4068535
9.8576584 -10.038233 -1.3125812
12.394011 -12.621046 -0.82181782
12.293467 -12.518661 -0
12.251821 -12.467544 0.81210095
8.8207397 -8.9760504 -1.4716837
11.145851 -11.342101 -1.1119754
12.306994 -12.514948 -0.40751445
12.299382 -12.507207 0.40726241
9.8618002 -10.028437 -1.3122002
12.397203 -12.597881 -0.82115436
12.31794 -12.517336 -0
12.271031 -12.469667 0.81279707
8.8258333 -8.9687014 -1.4714887
11.154578 -11.32723 -1.111662
12.328854 -12.519681 -0.40794876
12.317893 -12.508551 0.4075861
9.8708229 -10.016608 -1.3120042
12.396299 -12.579385 -0.82051259
12.339069 -12.521309 -0
12.295589 -12.468479 0.81355846
8.8336134 -8.9578238 -1.471221
11.160103 -11.317026 -1.111425
12.350698 -12.524362 -0.40838215
12.342505 -12.507319 0.40796688
9.8755999 -10.007472 -1.3117104
12.392169 -12.557646 -0.8196587
12.362329 -12.518664 -0
12.315423 -12.471165 0.81429452
8.8391294 -8.9509087 -1.4710985
11.169511 -11.302866 -1.1111825
12.377696 -12.525476 -0.40884092
12.361748 -12.509338 0.40831414
9.8822289 -10.000216 -1.3116632
12.394668 -12.533896 -0.81895536
12.380185 -12.519252 -0
12.335705 -12.474272 0.81505954
8.847024 -8.9401588 -1.4708534
11.174987 -11.292628 -1.1109427
12.398304 -12.528824 -0.40923259
12.381493 -12.511836 0.40867773
9.8911362 -9.988286 -1.3114563
12.395315 -12.517061 -0.81842053
12.399395 -12.521181 -0
12.360874 -12.473571 0.81585896
8.8521986 -8.9329052 -1.4706765
11.180921 -11.282859 -1.1107492
12.421097 -12.525595 -0.40955174
12.406137 -12.510509 0.40905851
9.8977232 -9.9809923 -1.3114055
12.404572 -12.508931 -0.81845498
12.421277 -12.517035 -0
12.381618 -12.477069 0.81665301
8.8566837 -8.9249611 -1.4703861
11.190642 -11.269043 -1.1105422
12.441946 -12.529112 -0.40995067
12.429178 -12.516254 0.40952998
9.9062786 -9.9687176 -1.3111552
12.418765 -12.497042 -0.81852752
12.441797 -12.520219 -0
12.402372 -12.480545 0.81744707
8.8651218 -8.914773 -1.4702364
11.196941 -11.259652 -1.1103868
12.459446 -12.529229 -0.41023901
12.45415 -12.515162 0.40992075
9.912056 -9.9606142 -1.3109992
12.436239 -12.497164 -0.81910402
12.467003 -12.519334 -0
12.426862 -12.479025 0.8181994
8.8701935 -8.9074278 -1.4700459
11.202682 -11.249706 -1.110177
12.483338 -12.52699 -0.41059351
12.478376 -12.522011 0.41043031
9.917222 -9.9519014 -1.3107632
12.458825 -12.493667 -0.81972945
12.489614 -12.524541 -0
12.448796 -12.483609 0.81906956
8.8786125 -8.8972273 -1.4698962
11.213135 -11.236645 -1.1100463
12.503335 -12.529551 -0.41096345
12.499253 -12.525459 0.41082925
9.9258795 -9.9397488 -1.310531
12.477636 -12.49507 -0.82039291
12.512873 -12.530357 -0
12.476674 -12.485388 0.82004303
8.8843555 -8.8905602 -1.4698191
11.218994 -11.22683 -1.10985
12.529787 -12.529788 -0.41140136
12.524899 -12.5249 0.41124088
9.9316063 -9.9316072 -1.3103714
12.497972 -12.497972 -0.82115614
12.540881 -12.532129 -0
12.501699 -12.492975 0.82111442
8.8897095 -8.8835058 -1.4696784
11.229228 -11.21356 -1.1097002
12.550551 -12.533041 -0.41179577
12.544473 -12.52697 0.4115963
9.9370241 -9.9231596 -1.3101718
12.520914 -12.494719 -0.82180333
12.563259 -12.536974 -0
12.529808 -12.503593 0.8223871
8.8978806 -8.8730679 -1.4694923
11.235426 -11.204095 -1.1095394
12.574148 -12.539083 -0.41228265
12.569202 -12.525404 0.41197708
9.9463358 -9.9116774 -1.3100303
12.541049 -12.497349 -0.82255203
12.586175 -12.542318 -0
12.563107 -12.510592 0.82371229
8.9028082 -8.8655949 -1.4692837
11.241975 -11.194983 -1.1094141
12.601722 -12.540289 -0.41275594
12.588656 -12.527287 0.41232798
9.9519291 -9.9034138 -1.3098561
12.564117 -12.494143 -0.82320648
12.609633 -12.539405 -0
12.588687 -12.518575 0.82481629
8.9073448 -8.8577356 -1.4690114
11.251204 -11.180733 -1.1091688
12.623437 -12.544371 -0.41318026
12.609614 -12.530635 0.41272783
9.9613018 -9.8920002 -1.3097255
12.583386 -12.495843 -0.82389718
12.630359 -12.542489 -0
12.618796 -12.522262 0.8259294
8.9149637 -8.8467636 -1.4687392
11.257264 -11.171145 -1.1089971
12.644887 -12.548153 -0.4135955
12.636373 -12.530951 0.41317391
9.9669065 -9.8837566 -1.3095549
12.601998 -12.496864 -0.82454437
12.655723 -12.541382 -0
12.642502 -12.52828 0.82690835
8.9198418 -8.8392534 -1.4685259
11.266298 -11.156719 -1.1087356
12.671618 -12.548369 -0.41403976
12.657521 -12.53441 0.4135792
9.9719534 -9.8749628 -1.3093119
12.625479 -12.493953 -0.82522416
12.675803 -12.543754 -0
12.662922 -12.531006 0.82767153
8.9278526 -8.82868 -1.4683218
11.27076 -11.145563 -1.1084086
12.690454 -12.549487 -0.4143689
12.681541 -12.540673 0.41407785
9.9805737 -9.8628197 -1.3090868
12.643357 -12.494187 -0.82582241
12.697061 -12.547256 -0
12.689309 -12.530845 0.82853806
8.933075 -8.8215189 -1.4681675
11.276569 -11.135748 -1.1082151
12.71532 -12.547767 -0.4147515
12.708954 -12.541485 0.4145439
9.9851866 -9.8536091 -1.3087893
12.662826 -12.495964 -0.82652402
12.724962 -12.548517 -0
12.709529 -12.533298 0.82928681
8.9375191 -8.813591 -1.4678862
11.284644 -11.120404 -1.1078635
12.735175 -12.549824 -0.41511327
12.731364 -12.546068 0.41498905
9.9932823 -9.8409643 -1.308499
12.684856 -12.491512 -0.82710773
12.746355 -12.552074 -0
12.724809 -12.530856 0.82971281
8.9453611 -8.802866 -1.4676594
11.290128 -11.110282 -1.1076401
12.757878 -12.554652 -0.41556752
12.756301 -12.544339 0.41537347
9.9978762 -9.831749 -1.3082014
12.704425 -12.493324 -0.82781476
12.773256 -12.552245 -0
12.743073 -12.522584 0.8300482
8.9500647 -8.7952051 -1.4674234
11.295574 -11.100131 -1.107414
12.782916 -12.552969 -0.41595465
12.770294 -12.540574 0.41554394
10.002823 -9.8228865 -1.3079511
12.728446 -12.490754 -0.82852721
12.794842 -12.55591 -0
12.752788 -12.514641 0.83011162
8.9576082 -8.7841978 -1.4671512
