# .PCD v0.7 - Point Cloud Data file format
VERSION 0.7
FIELDS x y z
SIZE 4 4 4
TYPE F F F
COUNT 1 1 1
WIDTH 1539
HEIGHT 1
VIEWPOINT 0 0 0 1 0 0 0
POINTS 1539
DATA ascii
14.954185 19.658627 -0.57346076
12.008499 15.797697 -1.8513217
15.033189 19.776806 -1.1541322
10.234106 13.473166 -1.9785818
14.153165 18.632593 -1.6361762
14.956681 19.704697 -0.5743475
12.003204 15.813636 -1.8522072
15.042474 19.817724 -1.155907
10.23138 13.489118 -1.9798748
14.155111 18.675726 -1.6386613
14.966746 19.746569 -0.5752632
11.988493 15.828647 -1.8524938
15.044024 19.862923 -1.1576238
10.220199 13.503722 -1.9804466
14.163164 18.713476 -1.6411055
14.976148 19.787653 -0.57615536
11.973006 15.831149 -1.851808
15.054043 19.90501 -1.1594639
10.21533 13.51689 -1.9813312
14.169432 18.748943 -1.6433481
14.978787 19.83427 -0.57705569
11.958177 15.834507 -1.8512238
15.057659 19.953188 -1.1613511
10.203389 13.530523 -1.9817623
14.170132 18.790747 -1.6457106
14.988803 19.876371 -0.57797599
11.935526 15.838976 -1.850284
15.067796 19.995638 -1.1632092
10.196485 13.541021 -1.9822569
14.174027 18.823235 -1.6476887
14.991648 19.92351 -0.57888991
11.921846 15.843823 -1.8498776
15.078749 20.039265 -1.1651344
19.434469 25.846678 -0
10.188614 13.550245 -1.9825654
14.175914 18.866821 -1.6502038
15.002202 19.966536 -0.57983559
11.901606 15.851447 -1.8493115
15.082355 20.087809 -1.167038
19.429718 25.877951 -0
10.178121 13.565842 -1.9832867
14.181003 18.901056 -1.6523319
15.012587 20.009428 -0.58077669
11.890443 15.859628 -1.849297
15.091571 20.129333 -1.1688381
19.414106 25.894791 -0
10.171509 13.576763 -1.9838449
14.189672 18.940144 -1.6548824
15.015707 20.057306 -0.58170968
19.326859 25.81595 0.74872404
11.878622 15.866929 -1.8491809
15.094769 20.177589 -1.1707217
19.396526 25.927868 -0
10.166025 13.589205 -1.9846252
14.190526 18.982676 -1.6572994
15.025013 20.098969 -0.58261359
19.350872 25.885675 0.75035423
11.864816 15.88313 -1.84962
15.104614 20.220167 -1.1725799
10.157011 13.606838 -1.9856461
14.200533 19.023743 -1.6600188
15.034501 20.140968 -0.58352661
19.328634 25.912466 0.75054371
11.854213 15.892064 -1.8496962
15.114641 20.263079 -1.1744561
19.319784 25.919474 1.5019121
10.15159 13.619401 -1.9864446
14.201088 19.066103 -1.6624167
15.036846 20.188177 -0.58443785
19.313385 25.929775 0.75065434
11.84516 15.903081 -1.8500154
15.117411 20.311136 -1.1763234
19.269508 25.889727 1.4994086
10.14274 13.637309 -1.9875063
14.21575 19.113628 -1.6656947
15.046194 20.230192 -0.58534992
11.831284 15.919222 -1.8504509
15.127248 20.354006 -1.1781943
19.249344 25.919258 1.4999506
10.137404 13.650024 -1.9883275
14.228307 19.158428 -1.6687329
15.048367 20.277422 -0.58626026
11.819055 15.925979 -1.8502767
15.129051 20.401022 -1.179998
19.221527 25.91959 1.4991928
10.136053 13.66813 -1.9899337
14.23399 19.208071 -1.6717575
15.058713 20.320993 -0.5872159
11.805171 15.942129 -1.8507158
15.137794 20.442623 -1.1817927
10.12905 13.688623 -1.991372
14.250083 19.257877 -1.6752262
15.067171 20.36211 -0.5880999
11.794778 15.951367 -1.8508319
15.146277 20.483965 -1.1835712
10.128138 13.707394 -1.9930733
14.249466 19.29928 -1.6775287
15.069894 20.410456 -0.5890401
11.787127 15.964323 -1.8513798
15.14861 20.532063 -1.185433
10.122228 13.729453 -1.9947385
14.256824 19.337482 -1.6799839
15.078375 20.451807 -0.58992952
11.770842 15.977252 -1.8514488
15.157741 20.574488 -1.1872712
10.12099 13.747858 -1.9963855
14.263697 19.375109 -1.6823872
15.081687 20.501213 -0.59089875
11.764433 15.99192 -1.8521962
15.168485 20.6192 -1.18924
10.113665 13.758016 -1.9968346
14.261047 19.414061 -1.6844717
15.091508 20.544596 -0.59184533
11.745263 16.000938 -1.8518152
15.172144 20.669485 -1.1912233
22.585989 30.7696 -0
10.107145 13.779361 -1.9983954
14.261756 19.44346 -1.6861584
15.102083 20.589102 -0.59282362
11.735469 16.011017 -1.8520329
15.18313 20.714754 -1.193221
22.577991 30.826324 -0
10.098829 13.788198 -1.998654
14.287368 19.506918 -1.6907961
15.106 20.639729 -0.59382552
11.721601 16.015533 -1.8516084
15.186906 20.765478 -1.1952261
22.563383 30.851538 -0
10.0921 13.809321 -2.0001831
14.287027 19.549366 -1.6931776
15.116588 20.684479 -0.59480923
11.704594 16.027485 -1.8515722
15.19742 20.810329 -1.1971966
22.605423 30.95435 -0
10.085064 13.819937 -2.0007002
14.3297 19.636518 -1.699859
15.118872 20.733145 -0.59575307
11.692599 16.034554 -1.8514451
15.208615 20.856213 -1.1992252
22.585762 30.995527 -0
10.086404 13.842056 -2.0028827
14.33491 19.68692 -1.7029217
15.128691 20.777063 -0.59671146
11.676625 16.04792 -1.8515757
15.210505 20.904753 -1.2010996
22.54895 30.99044 -0
10.076101 13.858385 -2.0037174
14.356819 19.745964 -1.7071617
15.137859 20.820185 -0.59764624
11.664596 16.054935 -1.8514451
15.222557 20.952049 -1.2032062
19.535709 26.90834 -0
10.075563 13.878006 -2.0055368
14.360978 19.780704 -1.7092979
15.139874 20.86887 -0.59858823
11.654252 16.064272 -1.851583
15.224106 21.000393 -1.2050662
19.50518 26.905781 -0
10.067375 13.897316 -2.0068028
14.358499 19.820915 -1.7114724
15.149404 20.912704 -0.59954208
11.636694 16.075459 -1.8514669
15.235937 21.047619 -1.2071655
19.501831 26.940718 -0
10.067449 13.917858 -2.0087538
14.370008 19.86598 -1.714497
15.153255 20.964193 -0.60056299
19.417328 26.863445 0.76955932
11.626698 16.085281 -1.8516629
15.244875 21.090948 -1.20904
19.465099 26.949345 -0
10.063455 13.93281 -2.009897
14.368444 19.907686 -1.7167968
15.163093 21.008682 -0.60153401
19.443434 26.939156 0.77133912
11.615875 16.093962 -1.8517282
15.249166 21.143488 -1.2111356
10.057229 13.954955 -2.0115714
14.382612 19.956659 -1.7201538
15.174154 21.054968 -0.60255587
19.415188 26.959469 0.77133822
11.601879 16.110094 -1.8521854
15.258117 21.187057 -1.213021
10.052788 13.969341 -2.0126331
14.393964 20.001835 -1.7231811
15.176196 21.104359 -0.60351419
19.396749 26.973557 0.77135366
11.593218 16.12179 -1.852599
15.262904 21.240576 -1.2151693
19.358685 26.940454 1.5412583
10.048534 13.984013 -2.0137355
14.394965 20.047474 -1.7258133
15.187198 21.150795 -0.60453874
11.581409 16.140999 -1.8534118
15.272389 21.285116 -1.2171072
19.344421 26.980185 1.5423714
10.037412 13.999447 -2.0144434
14.402309 20.087288 -1.7283747
15.196321 21.194715 -0.60549074
11.57537 16.156384 -1.8542501
15.283001 21.331331 -1.2191395
19.322878 26.989906 1.5421557
10.034682 14.016294 -2.0158589
14.397477 20.125017 -1.730323
15.200384 21.247334 -0.60653883
11.573049 16.176989 -1.8556869
15.285775 21.382463 -1.2211462
10.024058 14.032476 -2.0166755
14.630089 20.480366 -1.7599967
15.209723 21.291782 -0.60750449
11.564938 16.201475 -1.8571057
15.295396 21.427525 -1.2231096
10.023541 14.052485 -2.0185449
14.62778 20.507389 -1.7614409
15.214141 21.345192 -0.60857344
11.566694 16.227884 -1.8592067
15.298076 21.478809 -1.2251219
10.018703 14.066463 -2.0195475
14.651012 20.585524 -1.7668334
15.223351 21.389692 -0.60953903
11.563061 16.258783 -1.8613584
15.308858 21.525736 -1.2271885
10.012754 14.089313 -2.0213215
14.688353 20.668516 -1.7730761
15.233797 21.436031 -0.6105563
11.567584 16.289207 -1.8639166
15.31974 21.572908 -1.2292678
10.007295 14.102469 -2.0222063
15.008449 21.165842 -1.8143904
15.235986 21.486727 -0.6115455
11.570382 16.317268 -1.8662026
15.323918 21.626732 -1.2314197
9.9992466 14.12244 -2.0235674
14.998465 21.183088 -1.8149709
15.247249 21.534458 -0.61260086
11.568069 16.350267 -1.8685902
15.33514 21.674629 -1.2335371
9.994895 14.137211 -2.0246837
14.977666 21.185059 -1.8142433
15.249971 21.586199 -0.61361814
11.568165 16.374634 -1.8704517
15.346684 21.723097 -1.2356853
9.9922504 14.154424 -2.026149
15.267987 21.643749 -1.8521543
15.262586 21.636091 -0.61473334
11.561341 16.401396 -1.8721244
15.350569 21.776949 -1.2378336
9.9832764 14.17319 -2.0273378
15.259448 21.663736 -1.8529526
15.273924 21.684288 -0.61579961
11.556134 16.418335 -1.8731369
15.361908 21.825377 -1.2399764
9.9793158 14.188598 -2.0285447
15.25813 21.694019 -1.8546312
15.277368 21.737492 -0.61685586
11.551579 16.436232 -1.874258
15.366135 21.880026 -1.2421663
9.9682636 14.204471 -2.0293205
15.440666 22.002478 -1.8796182
15.289175 21.786608 -0.61794662
11.538715 16.454529 -1.8749657
15.377808 21.929182 -1.2443471
19.612389 27.967812 -0
9.9629087 14.21794 -2.0302508
15.447552 22.045006 -1.8823293
15.291864 21.839043 -0.61897928
11.532043 16.469463 -1.8757495
15.388769 21.977436 -1.2464755
19.591465 28.000303 -0
9.956583 14.230042 -2.0309856
15.444755 22.090199 -1.8848063
15.303623 21.888344 -0.62007368
11.519558 16.488354 -1.876526
15.392363 22.031637 -1.2486346
19.576632 28.020731 -0
9.9463406 14.247141 -2.0319386
15.452372 22.133982 -1.887621
15.314762 21.936871 -0.62114537
19.534615 28.002209 0.79269308
11.512761 16.503153 -1.8772953
15.403835 22.080875 -1.2508154
9.9419603 14.262071 -2.0330772
14.266946 20.466406 -1.7445576
15.319504 21.992695 -0.62227142
19.501959 27.99703 0.79216087
11.504705 16.516167 -1.8778613
15.407655 22.135715 -1.2530072
9.9333553 14.281583 -2.034375
14.25049 20.488501 -1.745168
15.33008 22.04067 -0.62332588
19.481762 28.009708 0.79213452
11.490888 16.533218 -1.878431
15.419521 22.185781 -1.2552315
19.446493 28.000683 1.5838441
9.9292917 14.297023 -2.0355864
14.24534 20.511631 -1.7462907
15.342089 22.09082 -0.62444109
11.482248 16.545422 -1.8789062
15.432328 22.237316 -1.2575375
19.421581 28.006525 1.5834072
9.925808 14.313325 -2.0369203
15.578339 22.481203 -1.9125836
15.344326 22.143497 -0.62547559
11.473109 16.556919 -1.8793018
15.435689 22.291962 -1.2597129
19.392361 28.006123 1.5826186
9.9170837 14.332772 -2.0382087
15.575899 22.511236 -1.9142131
15.355239 22.192326 -0.62655181
11.458684 16.573147 -1.8797808
15.447551 22.342403 -1.2619536
9.911067 14.34547 -2.0390301
15.578011 22.547915 -1.9164065
15.358104 22.246218 -0.62761897
11.4491 16.584024 -1.8801074
15.450313 22.3965 -1.2640946
9.9052134 14.358421 -2.0398877
15.570889 22.588148 -1.9184393
15.369965 22.296675 -0.6287396
11.434881 16.600584 -1.8806262
15.460859 22.445295 -1.2662392
9.893075 14.373005 -2.0404866
15.580147 22.635382 -1.9215266
15.379415 22.34375 -0.62976414
11.42481 16.610775 -1.8808767
15.471633 22.494535 -1.2684073
9.8857422 14.383842 -2.0410445
15.579576 22.685381 -1.924385
15.384196 22.400888 -0.63092017
11.415324 16.621824 -1.881225
15.47538 22.550524 -1.2706499
9.8750839 14.400617 -2.0419564
15.587227 22.730509 -1.9272896
15.393532 22.448048 -0.63194561
11.398791 16.635054 -1.8813701
15.486828 22.601011 -1.2728851
9.869215 14.413622 -2.0428231
15.598015 22.780323 -1.9305894
15.397339 22.504089 -0.63306898
11.389657 16.646633 -1.8817801
15.491936 22.659317 -1.2752545
9.8657846 14.430213 -2.0441978
15.598946 22.832937 -1.9336631
15.408015 22.553463 -0.63415515
11.373819 16.660896 -1.882045
15.504185 22.711248 -1.2775677
9.8557186 14.447941 -2.0452459
15.611988 22.886314 -1.9372599
15.419929 22.604767 -0.63529485
11.366303 16.674875 -1.8827273
15.516875 22.763948 -1.2799226
9.8515482 14.463508 -2.0464754
15.625358 22.9403 -1.9409058
15.422813 22.659933 -0.63639104
11.358665 16.68869 -1.8833913
15.521379 22.821873 -1.2822648
9.8399734 14.479078 -2.0472195
15.629975 22.998806 -1.9444699
15.434912 22.711779 -0.63754433
11.344787 16.705885 -1.8839899
15.53381 22.874474 -1.2846106
19.699638 29.008909 -0
9.8347864 14.4932 -2.048245
15.642906 23.052437 -1.9480803
15.438844 22.768818 -0.63869125
11.336483 16.718758 -1.8845488
15.544684 22.924908 -1.2868332
19.664955 29.023184 -0
9.8277121 14.50456 -2.0488801
15.648076 23.112108 -1.951737
15.449874 22.819365 -0.63980645
11.320451 16.732811 -1.8847955
15.547366 22.980635 -1.2890468
19.648321 29.042276 -0
9.8183193 14.523425 -2.0500915
15.66022 23.164864 -1.9552685
15.464472 22.875309 -0.64107215
19.623322 29.049 0.81389558
11.310007 16.742548 -1.8850024
15.55753 23.030285 -1.2912221
9.8129969 14.537416 -2.0510988
15.672626 23.218134 -1.9588408
15.467303 22.931217 -0.64218467
19.580719 29.029606 0.81296897
11.299707 16.752502 -1.8852346
15.559335 23.085037 -1.2933776
9.80336 14.555985 -2.0522695
15.678648 23.279589 -1.9626392
15.481439 22.986773 -0.64343768
19.557831 29.039381 0.81286013
11.284482 16.767778 -1.8856229
15.570665 23.136683 -1.2956618
9.7978716 14.56978 -2.0532494
15.690769 23.332727 -1.9661952
15.484824 23.043846 -0.64458096
11.276612 16.781366 -1.886265
15.583955 23.191368 -1.2981147
19.498596 29.038858 1.6250412
9.7925205 14.5838 -2.0542612
15.696419 23.393993 -1.9699719
15.498216 23.098593 -0.64580953
11.263949 16.800501 -1.8870888
15.590364 23.253469 -1.3006762
19.467215 29.035902 1.6241149
9.7813892 14.600235 -2.0551324
15.707736 23.446222 -1.973446
15.508756 23.149216 -0.64692199
11.25728 16.815922 -1.8879379
15.605188 23.310749 -1.3032703
9.7748833 14.612575 -2.0559082
15.719725 23.49958 -1.9770129
15.514389 23.21015 -0.64817053
11.248521 16.828239 -1.8884386
15.612152 23.374063 -1.3058953
9.7688599 14.625654 -2.0567884
15.721649 23.555798 -1.9803563
15.525128 23.261351 -0.64929748
11.236072 16.847776 -1.8893095
15.624624 23.428133 -1.3083065
9.7580566 14.642656 -2.0577412
15.73312 23.608664 -1.9838768
15.536952 23.314299 -0.65047252
11.226377 16.858725 -1.8896579
15.636619 23.481613 -1.3106831
9.7522163 14.656054 -2.0586667
15.736027 23.666693 -1.9873674
15.54107 23.373482 -0.65166932
11.218222 16.871998 -1.8902674
15.639098 23.538733 -1.3129565
9.7415628 14.673338 -2.0596604
15.749114 23.722279 -1.9911114
15.552094 23.425516 -0.65281719
11.202998 16.887432 -1.890681
15.650143 23.59107 -1.315266
9.737833 14.689966 -2.0610397
15.762132 23.777895 -1.9948553
15.555697 23.484276 -0.6540004
11.194235 16.89982 -1.8911927
15.653406 23.649714 -1.3176209
9.7325859 14.704331 -2.0621014
15.767167 23.839663 -1.998651
15.558343 23.523924 -0.65480191
11.177217 16.912573 -1.8913088
15.665053 23.703247 -1.319994
9.7241096 14.725005 -2.0635715
15.781055 23.896904 -2.0025258
15.582374 23.596045 -0.65650642
11.168171 16.924559 -1.8917769
15.677687 23.758406 -1.3224558
9.7209187 14.742544 -2.0650778
15.785672 23.958418 -2.0062943
15.580452 23.64695 -0.65746844
11.158599 16.935762 -1.8921579
15.682624 23.820112 -1.3249757
19.788031 30.055756 -0
9.7120848 14.762764 -2.0664842
15.798305 24.014065 -2.01003
15.618027 23.740036 -0.6597532
11.143315 16.951176 -1.8925751
15.695892 23.876541 -1.3275046
19.770884 30.075405 -0
9.7086773 14.780046 -2.0679543
15.811509 24.070719 -2.0138476
15.615209 23.789972 -0.66068619
11.134978 16.964283 -1.8931702
15.70084 23.938644 -1.3300426
19.743235 30.101973 -0
9.7049961 14.796944 -2.0693698
15.81498 24.131033 -2.0175071
15.641409 23.866192 -0.66249955
11.120467 16.980913 -1.8937255
15.717046 23.99987 -1.3328344
9.6949759 14.815475 -2.0705404
15.827894 24.187553 -2.0213082
15.646533 23.910404 -0.66342342
19.666918 30.077105 0.83433557
11.111568 16.993196 -1.8942299
15.728924 24.054632 -1.3352654
9.6888962 14.828767 -2.0714524
15.840483 24.243713 -2.0250769
15.637838 23.951824 -0.66411793
19.642714 30.085922 0.83419961
11.102998 17.005999 -1.8947923
15.736004 24.120569 -1.3380101
9.6772184 14.844821 -2.0722783
15.844452 24.305336 -2.028837
15.664342 24.029047 -0.66595578
19.61021 30.081995 0.83371091
11.089237 17.02384 -1.8954853
15.746827 24.174021 -1.3403651
19.590292 30.097351 1.6684138
9.6704721 14.857134 -2.0730541
15.857665 24.362768 -2.0327063
15.667659 24.089241 -0.66716892
11.082185 17.039011 -1.8963126
15.759497 24.230442 -1.3428831
19.564173 30.103168 1.6679786
9.6651077 14.871591 -2.0741293
15.862641 24.426323 -2.036622
15.692589 24.164465 -0.66894871
11.068718 17.057362 -1.8970637
15.760962 24.288307 -1.3451746
9.6538982 14.888443 -2.0750685
15.876177 24.48457 -2.040554
15.692521 24.201332 -0.66966587
11.060487 17.070765 -1.8976952
15.774047 24.345675 -1.3477415
9.6500807 14.90534 -2.0764842
15.919732 24.589331 -2.048358
15.687342 24.248934 -0.67052811
11.051039 17.082302 -1.8981197
15.77712 24.406385 -1.3501871
9.6394558 14.923162 -2.0775595
15.932666 24.665888 -2.0533445
15.71052 24.321978 -0.67224443
11.034072 17.095303 -1.8982793
15.790358 24.46431 -1.3527813
9.634923 14.939016 -2.0788298
15.943954 24.721214 -2.057023
15.718191 24.389854 -0.67366523
11.02245 17.103493 -1.8983338
15.80532 24.525051 -1.3555295
9.6288395 14.952492 -2.0797689
15.945575 24.780661 -2.0605791
15.743656 24.466864 -0.67548853
11.006132 17.117512 -1.8986095
15.810629 24.589804 -1.3581926
19.835554 30.849651 -0
9.6186914 14.971151 -2.0809622
15.967448 24.852766 -2.0656471
15.746308 24.508568 -0.67633623
10.995944 17.127941 -1.8989143
15.866059 24.713923 -1.3644361
19.849466 30.918715 -0
9.6125736 14.984623 -2.0819016
15.964928 24.88703 -2.0675683
15.749612 24.570251 -0.67758292
10.987511 17.141115 -1.899524
15.867319 24.772911 -1.3667747
19.939085 31.129971 -0
9.6078863 15.000347 -2.0831537
15.979188 24.966751 -2.0727999
15.761295 24.626303 -0.67882508
19.748753 30.856524 0.85056138
10.971629 17.155855 -1.8998832
15.874996 24.823036 -1.3689283
20.871016 32.63509 -0
9.5974998 15.018737 -2.0843108
15.99858 25.035526 -2.0775821
15.773434 24.683205 -0.68008989
19.794907 31.00009 0.85394686
10.964233 17.170689 -1.9006778
15.896975 24.895678 -1.372322
20.852859 32.682053 -0
9.5929604 15.034756 -2.0856037
15.990579 25.080853 -2.0799527
15.803631 24.78763 -0.68251067
19.931955 31.26281 0.86080045
10.953477 17.180275 -1.9008919
15.912407 24.977472 -1.3759115
20.572533 32.292404 -0
9.5826483 15.053335 -2.0867879
16.015753 25.159069 -2.0855114
15.825957 24.86092 -0.68422431
20.174635 31.716671 0.872715
10.939049 17.197348 -1.9015124
15.924495 25.034998 -1.3784676
20.770098 32.652802 -0
9.5779018 15.069092 -2.0880446
16.022955 25.209215 -2.0887403
15.831634 24.927422 -0.6855979
20.724665 32.631657 0.89749342
10.92875 17.207672 -1.9018099
15.929946 25.101574 -1.381214
20.767351 32.724106 -0
9.5731583 15.084882 -2.0893061
16.025345 25.271395 -2.0925007
15.835245 24.971613 -0.68650913
20.175777 31.816475 0.87468517
10.914576 17.225185 -1.9024812
15.934033 25.146803 -1.3830904
20.748892 32.745525 -0
9.5631466 15.104044 -2.0905719
16.046783 25.344307 -2.0976098
15.855411 25.042051 -0.68814111
19.988735 31.594625 0.86801028
10.904169 17.235365 -1.9027643
15.957155 25.222221 -1.3866254
20.70265 32.748348 -0
19.672567 31.118919 1.7104267
9.5591516 15.121079 -2.0920057
16.046768 25.403101 -2.101084
15.856396 25.101728 -0.68932432
20.598547 32.608871 0.89547968
10.896247 17.249483 -1.9034828
15.963537 25.29089 -1.3894807
20.592878 32.625114 -0
19.65365 31.137102 1.7106714
9.5488787 15.139909 -2.0932262
16.069254 25.478075 -2.1063566
15.877929 25.174725 -0.69102436
20.648777 32.764328 0.89915442
10.881536 17.266214 -1.9040706
15.977396 25.352039 -1.3922272
19.627583 31.168066 1.7112424
9.5455637 15.158095 -2.0948186
16.100302 25.566841 -2.1127656
15.872459 25.224556 -0.69193554
20.629269 32.784088 0.89930135
10.870993 17.276211 -1.9043355
15.987124 25.406782 -1.3946202
9.5411949 15.174642 -2.0961843
16.109591 25.6411 -2.1175067
15.891306 25.293665 -0.69352674
20.160809 32.089291 0.87985593
10.85579 17.292196 -1.9048434
15.98634 25.464655 -1.3968772
19.912762 31.719055 -0
9.5323505 15.195866 -2.0977361
16.097338 25.661352 -2.1182506
15.904461 25.353878 -0.69487315
19.975061 31.867676 0.87320548
10.845574 17.302738 -1.9051701
16.007105 25.537306 -1.400249
19.893532 31.762238 -0
9.5284119 15.21317 -2.099206
16.110136 25.721624 -2.122297
15.898723 25.40379 -0.69578439
10.835555 17.313602 -1.905533
16.008595 25.599213 -1.4027236
9.5196915 15.234689 -2.1007986
16.148485 25.842974 -2.130913
15.916681 25.472012 -0.69734836
19.851059 31.76833 0.86972296
10.819705 17.328602 -1.9059356
16.030397 25.673931 -1.4062042
9.5152149 15.251206 -2.1021597
16.123075 25.842438 -2.1299403
15.925326 25.545334 -0.69889879
19.810034 31.776672 0.86938298
10.811843 17.342949 -1.9066832
16.041885 25.732304 -1.4087876
20.410379 32.765141 -0
9.5111914 15.268482 -2.1036253
16.126892 25.908932 -2.1340277
15.936896 25.603689 -0.70019078
19.828106 31.855179 0.87115186
10.796018 17.358027 -1.9070969
16.034714 25.780897 -1.4105279
20.389975 32.78336 -0
9.5003166 15.286673 -2.1047595
16.154154 25.993162 -2.1400359
15.946536 25.65909 -0.70140117
20.363964 32.792568 0.89620322
10.787898 17.372004 -1.9078044
16.053457 25.851255 -1.4137639
9.4943066 15.300817 -2.105794
16.186176 26.085289 -2.1466901
15.960711 25.741989 -0.70321
20.304951 32.748528 0.89461201
10.779764 17.385977 -1.908512
16.06645 25.932735 -1.4172989
9.4827909 15.318042 -2.1067967
16.198233 26.16584 -2.1519217
15.982512 25.817375 -0.7049644
20.309216 32.806526 0.89580882
10.763536 17.400463 -1.9088639
16.084982 26.00318 -1.4205348
9.4758282 15.330698 -2.1076269
16.210077 26.225868 -2.1559274
15.984094 25.880447 -0.70622921
10.755984 17.415419 -1.9096804
16.086817 26.046772 -1.4223024
9.4696054 15.344573 -2.1086252
16.21666 26.298054 -2.1604643
15.97709 25.90955 -0.7067188
10.746558 17.427361 -1.9101666
16.090237 26.113434 -1.4250216
19.978298 32.423515 -0
9.4630222 15.357886 -2.1095462
16.233541 26.34601 -2.1639385
16.004145 25.994024 -0.70871806
10.738631 17.441748 -1.9109213
16.106045 26.179996 -1.4280401
19.944298 32.418987 -0
9.4527254 15.377207 -2.1108394
16.245737 26.427729 -2.1692519
16.005625 26.037128 -0.70958847
10.723658 17.458351 -1.9115092
16.118704 26.241606 -1.4307866
19.896206 32.391464 -0
19.740597 32.163296 1.7532825
9.4472847 15.392433 -2.1120236
16.258163 26.48938 -2.1733801
16.014793 26.113298 -0.71120685
19.880688 32.416924 0.88288873
10.717058 17.474953 -1.9125071
16.136488 26.311729 -1.4339954
19.72303 32.185055 1.7537177
9.4431038 15.409743 -2.1134934
16.273453 26.576677 -2.1791432
16.031126 26.180923 -0.71274364
19.850079 32.417774 0.88253427
10.708512 17.4884 -1.9131602
16.139166 26.37804 -1.4366875
9.4337015 15.430646 -2.1150043
16.271358 26.61496 -2.1813502
16.040342 26.237089 -0.71396768
19.805147 32.420578 0.88204557
10.69737 17.511354 -1.9144447
16.153397 26.442745 -1.439597
9.4284449 15.446269 -2.1162431
16.299368 26.702646 -2.187604
16.050682 26.315886 -0.71565408
10.69057 17.527718 -1.9154172
16.161335 26.518124 -1.4427786
9.4238577 15.463018 -2.117636
16.30879 26.781105 -2.1926312
16.067038 26.384119 -0.71720451
10.67783 17.54814 -1.9164259
16.157726 26.5539 -1.4441111
9.4122553 15.480437 -2.1186705
16.312864 26.829943 -2.1956968
16.079657 26.446383 -0.71859169
10.669231 17.561605 -1.9170827
16.187222 26.644243 -1.4484093
9.4081898 15.498115 -2.1201904
16.320227 26.905483 -2.2004788
16.091446 26.528316 -0.72035968
10.662212 17.577696 -1.9180261
16.193874 26.718208 -1.4515074
9.3981056 15.518114 -2.1215787
16.340801 26.981865 -2.2057924
16.080812 26.552572 -0.72071332
10.646518 17.593344 -1.918516
16.203096 26.775578 -1.4540093
9.3978891 15.542234 -2.1239789
16.362488 27.060291 -2.2112694
16.089954 26.630564 -0.72237253
10.639 17.608662 -1.919376
16.216484 26.839985 -1.4568917
20.036013 33.187874 -0
9.3990479 15.568686 -2.1266966
16.364635 27.127962 -2.2153976
16.118862 26.720539 -0.72450775
10.626477 17.62962 -1.9204464
16.221304 26.911592 -1.4598557
20.013422 33.202824 -0
9.3966312 15.601586 -2.1298454
16.37042 27.180437 -2.218749
16.129217 26.779959 -0.72581333
10.621206 17.648731 -1.92172
16.246878 26.99663 -1.463853
19.967791 33.205719 -0
9.3973532 15.62746 -2.1324813
16.39813 27.269503 -2.2250843
16.143101 26.866629 -0.72770375
19.922363 33.156372 0.89806646
10.616995 17.669643 -1.9231896
16.248726 27.06381 -1.4665723
9.3918409 15.655392 -2.1349497
16.384901 27.312222 -2.2271688
16.159901 26.937164 -0.72930855
19.925407 33.213943 0.89924872
10.607904 17.696465 -1.9248987
16.258436 27.122873 -1.4691575
9.3867502 15.671698 -2.1362791
16.409981 27.397366 -2.2331772
16.178715 27.011257 -0.73100853
19.895147 33.242363 0.89945364
10.604236 17.718384 -1.9264771
16.277048 27.196962 -1.4725548
9.3788137 15.683275 -2.1369641
16.413662 27.468725 -2.2375915
16.184975 27.086012 -0.73257256
10.599464 17.738503 -1.9278597
16.279785 27.266291 -1.4753846
19.812166 33.182518 1.795513
9.3658838 15.698952 -2.1377628
16.426523 27.533888 -2.2419648
16.191271 27.139561 -0.733715
10.589546 17.764126 -1.9294381
16.291914 27.329935 -1.4782127
19.81245 33.262085 1.7986946
9.3586149 15.711686 -2.1386065
16.444986 27.608624 -2.2471149
16.207182 27.231001 -0.73572779
10.580066 17.776426 -1.9299715
16.307863 27.421938 -1.4822644
9.3523436 15.726119 -2.1396818
16.451897 27.686129 -2.2520196
16.220186 27.296192 -0.73718297
10.568474 17.799335 -1.9312559
16.322184 27.489683 -1.48531
9.3433332 15.748485 -2.1413925
16.469545 27.759941 -2.2570879
16.231014 27.357887 -0.73854297
10.559318 17.812229 -1.9318547
16.346565 27.574581 -1.4892801
9.3404236 15.768656 -2.1432481
16.482037 27.825243 -2.2614613
16.250093 27.455526 -0.74071902
10.554526 17.832516 -1.9332553
16.351645 27.649117 -1.4923801
9.3302813 15.789218 -2.1447136
16.486788 27.899855 -2.2661209
16.260128 27.516287 -0.74205184
10.541977 17.853941 -1.9343802
16.371025 27.726048 -1.4959152
9.3266888 15.808326 -2.1464241
16.508295 27.980829 -2.2717612
16.260754 27.583256 -0.74339825
10.540808 17.880463 -1.9364557
16.372473 27.772764 -1.4978187
9.3219318 15.825497 -2.1478715
16.515749 28.060566 -2.2768295
16.279228 27.658714 -0.74512541
10.528051 17.901648 -1.9375552
16.368027 27.831802 -1.5000775
20.139826 34.245281 -0
9.3104649 15.843947 -2.1490512
16.530506 28.130545 -2.2815707
16.295826 27.731182 -0.74677104
10.525949 17.926702 -1.9394711
16.388008 27.910353 -1.5036942
20.093576 34.248665 -0
9.3049574 15.859914 -2.1503351
16.541624 28.194511 -2.2858214
16.299957 27.804831 -0.74829423
10.522519 17.949549 -1.9411476
16.406696 28.009315 -1.5080994
20.040342 34.212631 -0
9.2944975 15.880163 -2.1517596
16.556377 28.287487 -2.2919524
16.314274 27.873837 -0.74984467
20.028822 34.220348 0.92057455
10.51267 17.975868 -1.9428022
16.432051 28.097561 -1.5122327
9.2891836 15.89653 -2.1530981
16.56818 28.353037 -2.2963259
16.328501 27.942877 -0.75139505
20.001245 34.255466 0.92095536
10.509198 17.998753 -1.9444822
16.438993 28.154516 -1.51468
9.2858257 15.916282 -2.1548948
16.58028 28.442078 -2.3021297
16.342892 28.034859 -0.7534079
19.950775 34.223877 0.91973138
10.507971 18.025541 -1.9465832
16.431005 28.208635 -1.5166651
9.2772913 15.93998 -2.1567869
16.595703 28.514267 -2.3070345
16.344826 28.08322 -0.75440067
10.498005 18.051867 -1.9482378
16.456917 28.298525 -1.52088
9.2742891 15.960442 -2.1586788
16.616905 28.5966 -2.3127568
16.354528 28.167696 -0.75620949
10.494735 18.075268 -1.9499723
16.468393 28.386621 -1.5246871
9.2713022 15.980973 -2.1605799
16.608055 28.650394 -2.3156996
16.370111 28.23992 -0.75784153
10.486639 18.104961 -1.9519898
16.479668 28.451799 -1.5275694
9.2614031 16.002495 -2.1621771
16.641045 28.75355 -2.3230977
16.399395 28.33601 -0.7601127
10.483985 18.129551 -1.9538512
16.504631 28.540819 -1.5317299
9.2556829 16.018394 -2.1634519
16.649918 28.815264 -2.3271441
7.5919595 -12.898884 0.15666389
7.7698078 -13.201052 0.87281924
7.7142634 -13.106681 -0.90214157
7.6536131 -12.993257 -0.19203302
7.7560663 -13.167188 1.2277782
7.7625909 -13.178266 -1.2657331
7.6878996 -13.041053 -0.54658711
7.6081634 -12.905795 0.1567643
7.7767262 -13.19173 0.87251234
7.7216811 -13.087912 -0.90147918
7.6538496 -12.972939 -0.19185999
7.7661715 -13.152827 1.2271227
7.7715344 -13.161911 -1.2650176
7.6892605 -13.022571 -0.54608595
7.6158414 -12.898228 0.15668884
7.7887526 -13.18056 0.87223852
7.7282953 -13.078252 -0.90123427
7.6607184 -12.963894 -0.19185361
7.8259697 -13.232992 0.51789862
7.7750764 -13.146936 1.2270296
7.7784009 -13.152558 -1.2646899
7.7016196 -13.01236 -0.54606867
7.6289468 -12.889574 0.15660846
7.796186 -13.172135 0.87199152
7.734046 -13.067146 -0.90088993
7.6707263 -12.949848 -0.19183715
7.8239255 -13.208482 0.51710349
7.7850685 -13.142882 1.2271086
7.7882562 -13.137803 -1.2641292
7.7069983 -13.000732 -0.54585516
7.6349158 -12.879138 0.15649818
7.8068538 -13.158702 0.87156862
7.7446198 -13.053804 -0.90060246
7.6764565 -12.938912 -0.19180298
7.8307552 -13.198989 0.51689625
7.7992277 -13.135397 1.227097
7.7934885 -13.125731 -1.2635406
7.7131023 -12.990345 -0.54569381
7.6455259 -12.866301 0.156367
7.813868 -13.149596 0.87127709
7.7493272 -13.040983 -0.90014011
7.6848502 -12.922205 -0.19174726
7.8408828 -13.184576 0.51657867
7.8077416 -13.128848 1.2269443
7.7964797 -13.109911 -1.262591
7.7219286 -12.974241 -0.54542994
7.6500316 -12.853442 0.15622728
7.8198762 -13.138812 0.8708744
7.7585473 -13.02542 -0.89970005
7.6890721 -12.908782 -0.19167626
7.8478684 -13.175377 0.51638317
7.8193355 -13.117058 1.2265323
7.8045597 -13.092271 -1.2617533
7.7262864 -12.960966 -0.54514736
7.6544433 -12.840448 0.15608592
7.8318548 -13.127639 0.87060243
7.7632022 -13.012564 -0.89923543
7.6928592 -12.894656 -0.19159479
7.8585405 -13.161924 0.51610363
7.824441 -13.104813 1.2258478
7.8080482 -13.077356 -1.2608907
7.7304091 -12.947322 -0.54484928
7.6634383 -12.824983 0.1559228
7.8380785 -13.117249 0.87022632
7.7677832 -12.999607 -0.8987639
7.7014861 -12.878446 -0.19154663
7.8653841 -13.152516 0.51590014
7.8283744 -13.090629 1.224982
7.8158774 -13.059381 -1.2600207
7.7392907 -12.931413 -0.54459399
7.6678567 -12.812056 0.15578224
7.8456736 -13.109166 0.87000346
7.7760601 -12.982563 -0.89822209
7.7054372 -12.864655 -0.19147016
7.8731809 -13.144712 0.51575971
7.8346744 -13.070071 1.2237506
7.8197069 -13.045102 -1.2592195
7.7436194 -12.918171 -0.54431283
7.6767683 -12.796516 0.15561822
7.8545442 -13.092853 0.8693915
7.7801051 -12.968769 -0.89769274
7.7096338 -12.8513 -0.19140019
7.8846922 -13.132713 0.5155378
7.8371248 -13.053486 1.2226597
7.8232193 -13.030324 -1.2583698
7.7521353 -12.90172 -0.54403508
7.6805706 -12.782617 0.15546583
7.861053 -13.08299 0.86905086
7.7878318 -12.950887 -0.89709312
7.7178535 -12.834516 -0.19134361
7.8907008 -13.121955 0.51528162
7.8384728 -13.035101 1.2213999
7.8314371 -13.013114 -1.2575741
7.7567315 -12.888979 -0.54377508
7.684659 -12.769219 0.15531953
7.8694592 -13.065968 0.86839217
7.7916794 -12.936826 -0.89654523
7.7217336 -12.820692 -0.19126666
7.8988767 -13.104458 0.51484412
7.8456292 -13.016119 1.2203153
7.8346701 -12.997937 -1.2566857
7.7602253 -12.874432 -0.54343891
7.6919742 -12.751132 0.15512452
7.8747129 -13.054061 0.86791599
7.7946649 -12.921364 -0.89590007
7.7293606 -12.803001 -0.19119665
7.9035854 -13.091589 0.51450515
7.846868 -12.997643 1.2190464
7.8391328 -12.984829 -1.2559972
7.7686348 -12.857909 -0.54315841
7.6949763 -12.735997 0.15495706
7.8790865 -13.040719 0.86734438
7.802762 -12.904215 -0.89535141
7.7331834 -12.789145 -0.19111919
7.9063606 -13.075546 0.51404136
7.8551965 -12.980695 1.2181525
7.8469787 -12.967115 -1.2551532
7.7716665 -12.842662 -0.54279256
7.6984062 -12.7216 0.15479857
7.8878717 -13.024425 0.86673445
7.8057075 -12.888756 -0.89470631
7.7362418 -12.774055 -0.19102325
7.9148498 -13.058681 0.51362878
7.8582244 -12.965255 1.217168
7.8516083 -12.95434 -1.2544969
7.7797852 -12.825736 -0.54249513
7.7104077 -12.711361 0.15469904
7.8918672 -13.010514 0.86612505
7.8095455 -12.874799 -0.89416534
7.7445469 -12.757598 -0.19097176
7.9198933 -13.046446 0.51331472
7.8620429 -12.951149 1.2163085
7.8597293 -12.937156 -1.2537044
7.7829394 -12.810759 -0.5421406
7.7166843 -12.701702 0.15459824
7.8997965 -12.992883 0.86542624
7.8170652 -12.856814 -0.8935588
7.747303 -12.742075 -0.19086932
7.9239502 -13.032609 0.51293766
7.8705235 -12.934565 1.215449
7.8640828 -12.92398 -1.2530096
7.7869492 -12.797216 -0.54184681
7.7332931 -12.699053 0.15459113
7.9037347 -12.97894 0.86481464
7.8215351 -12.843958 -0.8930943
7.7555394 -12.725583 -0.19081737
7.9320483 -13.015204 0.51250398
7.8748732 -12.92139 1.214677
7.8678746 -12.909906 -1.2522277
7.7953444 -12.780854 -0.54157341
7.7441912 -12.696986 0.15458277
7.9060531 -12.962367 0.86402768
7.8299403 -12.827502 -0.89259434
7.7615929 -12.71553 -0.19079694
7.9358654 -13.001035 0.51211375
7.8778486 -12.905989 1.2136956
7.8765764 -12.893781 -1.2515384
7.7990952 -12.766946 -0.54126406
7.9520764 -13.017373 0.15850066
7.9138279 -12.944602 0.86331999
7.8341737 -12.814312 -0.89210671
7.7672892 -12.704909 -0.19076803
7.9433236 -12.982662 0.51164198
7.8854084 -12.888005 1.2127048
7.8806367 -12.880206 -1.2508048
7.8024435 -12.752406 -0.54092789
7.9653778 -13.008506 0.1584186
7.91537 -12.926836 0.86245322
7.8380456 -12.800556 -0.89157963
7.7810993 -12.6976 -0.19085437
7.9463277 -12.967229 0.51120186
7.88696 -12.870349 1.2115109
7.8891516 -12.863844 -1.2500931
7.8107104 -12.73594 -0.54065037
7.9743352 -13.002743 0.15836571
7.9190111 -12.912533 0.86181724
7.8466911 -12.784594 -0.89111453
7.7910242 -12.693895 -0.19092968
7.9500699 -12.953029 0.51081038
7.8923459 -12.848916 1.2101951
7.8931155 -12.850169 -1.2493498
7.8157372 -12.724195 -0.54043281
7.985002 -12.989594 0.15823156
7.9257097 -12.89314 0.86100078
7.849916 -12.769842 -0.89051801
7.9836917 -12.987462 -0.19547954
7.9576783 -12.935022 0.51035297
7.8924618 -12.829014 1.2087888
7.8969016 -12.83623 -1.2485808
7.8256178 -12.710418 -0.54026979
7.9913249 -12.97956 0.15812667
7.9285355 -12.877577 0.86028051
7.8576975 -12.752548 -0.88996029
7.9999714 -12.98345 -0.19562107
7.9602771 -12.919028 0.50989062
7.8933702 -12.810443 1.2075075
7.9052892 -12.819764 -1.2478595
7.8344684 -12.704916 -0.54031801
7.9965096 -12.967694 0.15799947
7.9357309 -12.859081 0.85952395
7.8608627 -12.737765 -0.88936138
8.0121717 -12.982946 -0.19574845
7.9674635 -12.900423 0.50940961
7.8980885 -12.788095 1.2061043
7.9087114 -12.805296 -1.2470388
7.8701453 -12.742851 -0.54221475
8.0058956 -12.952536 0.15784085
7.9364033 -12.840105 0.85857522
7.8655901 -12.725538 -0.88894093
8.0224342 -12.969167 -0.19574341
7.9682536 -12.881578 0.50883448
7.8990688 -12.769733 1.2048419
7.9125686 -12.791557 -1.2462891
7.983119 -12.895547 -0.54914331
8.009201 -12.937677 0.15767719
7.9365196 -12.820272 0.85756886
7.8800392 -12.719114 -0.88914329
8.0307245 -12.962334 -0.1957757
7.9696999 -12.863834 0.50830269
7.9066539 -12.752128 1.2038854
7.9197197 -12.773201 -1.245384
8.0372305 -12.962726 -0.5522939
8.0123653 -12.922623 0.1575111
7.940155 -12.796184 0.8564375
7.888011 -12.71215 -0.88909137
8.0348291 -12.948758 -0.1957062
7.9747853 -12.841985 0.50769323
7.9108324 -12.739 1.2031167
7.9228005 -12.758273 -1.2445183
8.0607309 -12.970281 -0.55305183
8.0198317 -12.904471 0.157316
7.9413891 -12.778252 0.85555768
7.9034686 -12.717235 -0.88988304
8.0432472 -12.932077 -0.19565769
7.9756875 -12.823454 0.50713003
7.9183073 -12.731196 1.2028508
7.9308872 -12.741504 -1.243768
8.0679474 -12.961699 -0.55297709
8.0188074 -12.882754 0.15706865
7.9468293 -12.757188 0.85462821
7.9214592 -12.71646 -0.89048451
8.0480814 -12.919729 -0.19560678
7.9765058 -12.804828 0.50656295
7.9311643 -12.722142 1.2027035
7.9390574 -12.734803 -1.2437055
8.0821352 -12.964311 -0.55338037
8.0244169 -12.861724 0.1568384
7.9536915 -12.748363 0.85435826
8.0947552 -12.974463 -0.90899849
8.059351 -12.907681 -0.19562861
7.9840608 -12.787099 0.50611609
7.9426446 -12.720767 1.2030466
7.9456344 -12.725556 -1.2433946
8.091382 -12.948918 -0.55316174
8.0229206 -12.839358 0.15658312
7.9597187 -12.738213 0.8539995
8.1064329 -12.962934 -0.90886235
8.0617943 -12.891553 -0.19552051
7.9865904 -12.771295 0.50566047
7.9634137 -12.724351 -1.2441674
8.0958214 -12.935919 -0.55289912
8.0229311 -12.81945 0.15635777
7.9725385 -12.729048 0.85386825
8.1140509 -12.954988 -0.90875393
8.0652571 -12.877083 -0.19543749
7.9972868 -12.758659 0.50541538
8.0017757 -12.765821 -1.2488195
8.1006823 -12.923614 -0.55266619
8.0258904 -12.794366 0.15607798
7.9796009 -12.720574 0.8536225
8.1196108 -12.943769 -0.90841597
8.0692253 -12.853478 -0.19528407
8.0038891 -12.749404 0.50521916
8.1041269 -12.899072 -1.2627621
8.1063604 -12.902627 -0.5522086
8.029376 -12.780094 0.15592135
7.9864893 -12.711832 0.85335898
8.1282396 -12.927431 -0.9079439
8.0672398 -12.830416 -0.19507031
8.0108767 -12.740774 0.50504786
8.1455746 -12.944972 -1.267864
8.1076727 -12.884738 -0.55173653
8.0365734 -12.761863 0.15572514
7.9947696 -12.695479 0.85274643
8.1324816 -12.914162 -0.9074623
8.0640602 -12.805511 -0.19482833
8.0224047 -12.729506 0.5048576
8.1603775 -12.948435 -1.268813
8.1108923 -12.859961 -0.55111617
8.0514202 -12.765666 0.15578905
7.9997001 -12.683662 0.85227668
8.1387548 -12.894159 -0.90673292
8.0683546 -12.782624 -0.19468527
8.0283108 -12.719183 0.50461936
8.1711226 -12.935433 -1.2684553
8.1084223 -12.836174 -0.55039078
8.0607891 -12.760769 0.15574683
8.0066662 -12.665294 0.85152882
8.1405859 -12.877133 -0.90598696
8.070117 -12.765663 -0.19456388
8.0320368 -12.705426 0.50424492
8.1797743 -12.92913 -1.2684492
8.1058178 -12.812233 -0.54965824
8.0852232 -12.769812 0.15588358
8.0105219 -12.651829 0.85094827
8.1408949 -12.857739 -0.90507394
8.0843582 -12.75859 -0.19466187
8.0395508 -12.687876 0.50380564
8.1801071 -12.9097 -1.2671554
8.1110754 -12.790877 -0.54918343
8.1019592 -12.776502 0.15598288
8.0140905 -12.637936 0.85033888
8.1453466 -12.835013 -0.90415204
8.0944147 -12.754756 -0.19474088
8.0425501 -12.673031 0.50338799
7.985074 -12.572761 1.1942544
8.1841221 -12.886169 -1.2657648
8.1123219 -12.773117 -0.54871541
8.2960606 -13.062419 0.15949158
8.0225534 -12.622036 0.84975725
8.1430302 -12.811584 -0.90295368
8.1098747 -12.759419 -0.19494991
8.0486727 -12.653372 0.5028649
7.9896512 -12.560583 1.193576
8.1819363 -12.862876 -1.2640901
8.1258383 -12.764843 -0.54880267
8.307889 -13.050825 0.15937716
8.025773 -12.60765 0.8491146
8.1440763 -12.793491 -0.90213102
8.1301355 -12.761757 -0.19519293
8.0524712 -12.639849 0.50249964
7.9962864 -12.551656 1.1932067
8.1856251 -12.838966 -1.2626606
8.1341591 -12.758244 -0.54881465
8.3164949 -13.044231 0.15931475
8.0342751 -12.591878 0.84854174
8.1481953 -12.770423 -0.90118343
8.3205023 -13.040473 -0.19959752
8.0558138 -12.625635 0.50210685
8.005909 -12.537767 1.1926057
8.1853447 -12.818775 -1.2612891
8.1476641 -12.759766 -0.54917645
8.326911 -13.030448 0.15917359
8.0377522 -12.577954 0.84793013
8.152257 -12.757138 -0.90069932
8.3319798 -13.03838 -0.19970733
8.0643206 -12.609827 0.50173694
8.0114527 -12.52716 1.1920772
8.1863823 -12.80069 -1.2601241
8.1988564 -12.810341 -0.55180055
8.3337955 -13.021177 0.15907851
8.0417604 -12.564885 0.84737617
8.1716661 -12.758047 -0.90144533
8.3483467 -13.033889 -0.19985178
8.067564 -12.595516 0.50134021
8.0148849 -12.513271 1.1912365
8.1922379 -12.780339 -1.2590433
8.3178654 -12.96636 -0.55897522
8.3414583 -13.003139 0.15888539
8.0500517 -12.548878 0.84678775
8.1850195 -12.749479 -0.90152335
8.3604918 -13.022805 -0.19989553
8.0763845 -12.580263 0.50099248
8.0242014 -12.498979 1.190598
8.2016783 -12.765623 -1.2585179
8.3673859 -13.02354 -0.56174511
8.345953 -12.990182 0.15874526
8.0585508 -12.533228 0.84622359
8.2067814 -12.763766 -0.90299088
8.3682928 -13.01496 -0.19991785
8.0841475 -12.563396 0.50058055
8.0313053 -12.481275 1.1896349
8.2099113 -12.758842 -1.2584668
8.3838682 -13.029184 -0.56229419
8.3547516 -12.973981 0.15857458
8.0621061 -12.519535 0.84562749
8.2901917 -12.873726 -0.91123223
8.3749771 -12.99542 -0.19983204
8.0880537 -12.550202 0.50022835
8.0368338 -12.470726 1.1891124
8.2228003 -12.749514 -1.2584743
8.3942051 -13.015277 -0.5621531
8.3583879 -12.959743 0.15841877
8.0654345 -12.505516 0.84500927
8.3772955 -12.979111 -0.91939223
8.3784971 -12.980972 -0.19975296
8.0918598 -12.536879 0.49987087
8.0460052 -12.456289 1.1884614
8.2370625 -12.752071 -1.259347
8.4043684 -13.011085 -0.56227875
8.3691559 -12.946653 0.15828614
8.0731077 -12.488682 0.84436536
8.3959217 -12.988058 -0.92049456
8.3803692 -12.963999 -0.19963497
8.100214 -12.521025 0.49949947
8.0512323 -12.445312 1.1878984
8.2792635 -12.797793 -1.264486
8.411602 -12.992411 -0.56193238
8.3753052 -12.936348 0.15817842
8.0756159 -12.473454 0.84366518
8.4082642 -12.977324 -0.92043787
8.387887 -12.945872 -0.19957086
8.1041565 -12.507964 0.49915245
8.0582275 -12.437077 1.1875974
8.3762732 -12.918066 -1.277316
8.4133415 -12.975233 -0.56149685
8.0830717 -12.456357 0.84300351
8.421629 -12.978087 -0.92096257
8.3935623 -12.934836 -0.19954433
8.112298 -12.491843 0.49877051
8.0697451 -12.426318 1.1872988
8.4160309 -12.959551 -1.2820526
8.41502 -12.957994 -0.56105846
8.0857954 -12.441525 0.84232992
8.4265852 -12.965893 -0.92056823
8.4045687 -12.922142 -0.19956422
8.1162281 -12.478815 0.4984248
8.4287243 -12.959282 -1.2826619
8.4246006 -12.943055 -0.56087369
8.0891628 -12.427707 0.84172499
8.4337702 -12.947255 -0.91995227
8.1196976 -12.465099 0.49805161
8.4404583 -12.947638 -1.2824647
8.4294767 -12.930792 -0.56065083
8.0967407 -12.410904 0.84108323
8.4373083 -12.932936 -0.91940701
8.1272202 -12.448125 0.49763563
8.4479609 -12.939391 -1.282286
8.1008615 -12.398296 0.8405602
8.4411507 -12.919107 -0.91889656
8.1302681 -12.433824 0.49723893
8.4590302 -12.926753 -1.2819922
8.1085863 -12.381784 0.83993828
8.4495239 -12.902395 -0.91841763
8.1334295 -12.41972 0.4968501
8.4629078 -12.912994 -1.2812676
8.1124392 -12.368818 0.83939093
8.1409054 -12.402777 0.4964354
8.0738554 -12.300625 1.1786838
8.471405 -12.906298 -1.281244
8.1159992 -12.355429 0.83881474
8.1444378 -12.389296 0.49607137
8.0736599 -12.272293 1.1767007
8.1220303 -12.336437 0.83802462
8.1526833 -12.37359 0.49570626
8.0781784 -12.260512 1.1760597
8.1229134 -12.319045 0.83717632
8.1566334 -12.360793 0.49536967
8.0811415 -12.24639 1.1751941
8.1271896 -12.297489 0.83621144
8.1594925 -12.346368 0.49496779
8.0895395 -12.231236 1.1744742
8.1251192 -12.275717 0.83506453
8.1663389 -12.32864 0.49452165
8.09165 -12.215882 1.1734902
8.1235609 -12.254766 0.83397305
8.166398 -12.310055 0.49395269
8.0966702 -12.204946 1.1729302
8.1275654 -12.23297 0.83299065
8.1702509 -12.287909 0.49332905
8.1077032 -12.193838 1.1726002
8.1947365 -12.31541 0.15090401
8.1285439 -12.215931 0.83216465
8.1683121 -12.266411 0.49264273
8.1176414 -12.190318 1.172754
8.186307 -12.284138 0.15053874
8.1325302 -12.203441 0.83164835
8.1676903 -12.246935 0.49203739
8.1333885 -12.186285 1.1731066
8.1956091 -12.270232 0.15039521
8.144289 -12.193397 0.83146656
8.2507925 -12.352851 -0.19322494
8.1716385 -12.225102 0.49142566
8.1468515 -12.188021 1.1737685
8.198266 -12.255677 0.15023476
8.153842 -12.189266 0.83152074
8.2338037 -12.299509 -0.19260392
8.1750469 -12.21174 0.49106571
8.1585884 -12.187155 1.1741809
8.2026253 -12.243688 0.15010574
8.1702538 -12.186167 0.83181417
8.2358837 -12.284057 -0.19250436
8.1847429 -12.19857 0.49080229
8.1757975 -12.185238 1.1747417
8.2805939 -12.341427 -0.54080528
8.2076254 -12.223451 0.14988458
8.1845875 -12.189139 0.83235455
8.2391577 -12.26116 -0.19235931
8.1939116 -12.193827 0.49078923
8.2707911 -12.29896 -0.53940272
8.2119503 -12.211462 0.14975555
8.1968174 -12.188959 0.8326804
8.2421761 -12.247174 -0.1922826
8.2051697 -12.192186 0.49090132
8.2747726 -12.286349 -0.53915566
8.2212191 -12.197641 0.14961307
8.2156401 -12.189363 0.83321643
8.2405071 -12.226258 -0.19209696
8.2217331 -12.189221 0.49104968
8.2786779 -12.264409 -0.53865218
8.2294712 -12.191511 0.14955591
8.3068209 -12.296843 -0.88476372
8.247839 -12.20953 -0.1920485
8.2335854 -12.188429 0.49119672
8.2826023 -12.251769 -0.53840375
8.2413273 -12.190715 0.14956418
8.3062687 -12.277537 -0.88384491
8.2525959 -12.198203 -0.1920135
8.2454624 -12.187659 0.49134496
8.2816544 -12.231953 -0.53783971
8.2586689 -12.188836 0.14956827
8.3111181 -12.266246 -0.88350272
8.2647076 -12.188584 -0.19207716
8.3654795 -12.337201 -1.2382188
8.2901392 -12.216908 -0.53763896
8.2716293 -12.18963 0.14959614
8.3181944 -12.249047 -0.88297081
8.2756281 -12.186365 -0.19218592
8.3533592 -12.291595 -1.2345995
8.2938824 -12.204078 -0.53738195
8.2851648 -12.191251 0.1496342
8.321085 -12.234916 -0.88242394
8.2889433 -12.187657 -0.19235033
8.3588915 -12.281283 -1.2342035
8.3068981 -12.195738 -0.53747696
8.3226204 -12.218821 -0.88173527
8.3107214 -12.192202 -0.19263874
8.3623762 -12.258786 -1.2329026
8.3168383 -12.19203 -0.53762245
8.3296261 -12.201625 -0.88120335
8.324934 -12.194752 -0.19282386
8.3673286 -12.24767 -1.2324257
8.3303242 -12.193503 -0.53799695
8.3356104 -12.192102 -0.88098913
8.3463898 -12.198727 -0.19310461
8.3657188 -12.226978 -1.2309849
8.3497696 -12.19453 -0.5385077
8.348238 -12.183169 -0.88105512
8.4128304 -12.268248 1.1901149
8.3745298 -12.212395 -1.2304798
8.363843 -12.19681 -0.53891951
8.3600273 -12.182126 -0.88145506
8.4117403 -12.248316 1.1886966
8.3781805 -12.19945 -1.2298185
8.3827333 -12.196954 -0.53939372
8.3729677 -12.182743 -0.88197613
8.4159231 -12.236092 1.188026
8.3915873 -12.191594 -1.2299929
8.3899651 -12.18013 -0.88250321
8.424139 -12.220609 1.1872972
8.4011993 -12.187331 -1.2302083
8.4946871 -12.313749 0.84711617
8.402317 -12.179852 -0.88296169
8.4308786 -12.212133 1.1869911
8.4154091 -12.189725 -1.2310969
8.4886742 -12.286674 0.84560657
8.440999 -12.208554 1.1871613
8.4374018 -12.194249 -1.232527
8.4941454 -12.267104 0.8447898
8.5235004 -12.300323 0.49883014
8.4552031 -12.201761 1.1872795
8.45152 -12.196447 -1.2333997
8.4973526 -12.25345 0.84420335
8.5236731 -12.282247 0.49828383
8.4703817 -12.205456 1.1881595
8.4741211 -12.201749 -1.2349145
8.5008574 -12.240246 0.84364784
17.63271 -25.370146 -0.40481749
8.5278349 -12.269946 0.49797174
8.4937897 -12.211864 1.1895665
8.5063524 -12.229925 -1.2384218
8.5085268 -12.223947 0.84305626
17.634975 -25.335646 -0.40457588
8.5388288 -12.258352 0.49778199
8.5118637 -12.219642 1.1908479
8.804162 -12.639266 -1.2805512
8.5802708 -12.308684 0.15139201
8.5166359 -12.217399 0.84295988
17.636736 -25.281668 -0.40417749
8.5440121 -12.247555 0.497531
8.5354548 -12.235289 1.192898
8.6447124 -12.382691 -1.2555563
8.5705948 -12.276525 0.15101531
8.5349674 -12.216406 0.84342551
17.651003 -25.264513 -0.40421283
8.5539265 -12.234444 0.49727997
8.5625238 -12.24674 1.1948054
8.6342583 -12.349339 -1.2528411
8.5803556 -12.263127 0.1508788
8.5508299 -12.220928 0.84409481
17.698978 -25.27676 -0.40487459
8.5616388 -12.227287 0.49717718
8.5863066 -12.262517 1.1968738
8.6376429 -12.326673 -1.2515421
8.5837603 -12.249777 0.15073343
8.5731697 -12.234664 0.84540176
8.6035872 -12.268957 -0.1966711
8.5746794 -12.227734 0.49738377
8.6108894 -12.270257 1.1984255
8.6396694 -12.311267 -1.2506459
8.5958881 -12.239791 0.15063891
8.5985546 -12.243588 0.84655738
8.6070538 -12.255691 -0.19660971
8.5941477 -12.228236 0.49768758
8.6312561 -12.281035 1.2000108
8.6304646 -12.279909 -1.2481277
8.6422358 -12.287539 -0.54835385
8.6019363 -12.230242 0.15054031
8.6219549 -12.258703 0.84796309
8.6191187 -12.245584 -0.19667482
8.616931 -12.242476 0.49845672
8.6472931 -12.285613 1.2009919
8.6363659 -12.260993 -1.2472072
8.6433697 -12.270937 -0.54793745
8.6124973 -12.227108 0.15052068
8.6465864 -12.266406 0.84903866
8.624424 -12.234966 -0.19665605
8.6387472 -12.255285 0.49916843
8.6669588 -12.286198 1.2018517
8.6390638 -12.246655 -1.2464176
8.6470509 -12.257976 -0.54768348
8.6318531 -12.227368 0.15055239
8.6657209 -12.275344 0.85002017
8.6992607 -12.322855 -0.90095925
8.6374569 -12.226246 -0.19674392
8.669239 -12.271234 0.50010431
8.6822319 -12.289624 1.2027236
8.6490688 -12.242683 -1.2466835
8.6570415 -12.244895 -0.54758686
8.6498356 -12.234703 0.15066175
8.6817875 -12.279899 0.85069931
8.6928568 -12.286454 -0.89904672
8.6474113 -12.222221 -0.19683152
8.6895533 -12.281784 0.50072581
8.6999378 -12.287364 1.2033092
8.6621962 -12.234058 -1.2468121
8.661932 -12.233685 -0.54741132
8.6694355 -12.244283 0.15079881
8.7011385 -12.279968 0.85125118
8.6943293 -12.270358 -0.89836866
8.6624222 -12.225327 -0.19703425
8.7135897 -12.288445 0.50128543
8.7130442 -12.287675 1.2038789
8.6759787 -12.235403 -1.2476221
8.6726809 -12.221709 -0.54736477
8.6962233 -12.254885 0.15095811
8.7133455 -12.279015 0.85155052
8.6959867 -12.254552 -0.89771158
8.684514 -12.229337 -0.1973286
8.7280445 -12.290636 0.50156742
8.7277775 -12.29026 1.2046725
8.6939917 -12.233635 -1.2484537
8.682951 -12.2181 -0.54753011
8.7175159 -12.266737 0.1511233
8.7329149 -12.279326 0.85212183
8.7031622 -12.237491 -0.89721274
8.7087364 -12.245329 -0.19774036
8.7394972 -12.288582 0.5016765
8.7435141 -12.285148 1.2049836
8.7068844 -12.23368 -1.2491347
8.6989021 -12.222465 -0.54805344
8.7398968 -12.270996 0.15120466
8.7478676 -12.282187 0.85268778
8.7064075 -12.223977 -0.89672333
8.7364492 -12.257098 -0.19816183
8.7523403 -12.279393 0.50159127
8.7591429 -12.288938 1.2058983
