# .PCD v0.7 - Point Cloud Data file format
VERSION 0.7
FIELDS x y z
SIZE 4 4 4
TYPE F F F
COUNT 1 1 1
WIDTH 1555
HEIGHT 1
VIEWPOINT 0 0 0 1 0 0 0
POINTS 1555
DATA ascii
41.400059 11.668221 1.6066941
15.638158 4.413362 -1.2840581
21.045448 5.9393945 -0.70658845
33.695541 9.5094728 0.49419266
13.805991 3.9014964 -1.4716203
17.933479 5.0679016 -1.0386186
25.950514 7.3334713 -0.24541858
41.418221 11.720172 1.6074531
15.639073 4.4254107 -1.2844936
21.051397 5.9569435 -0.70707029
33.889027 9.5896263 0.4968991
47.451675 13.445359 2.9899652
13.805274 3.9117031 -1.4719294
17.939537 5.0831404 -1.0392966
25.953377 7.3636374 -0.24578199
41.392048 11.743984 1.6064744
15.638595 4.4370699 -1.2848152
21.055206 5.981843 -0.70762241
33.978687 9.6534405 0.49801654
47.589134 13.520206 2.9988966
13.804773 3.9219747 -1.4722626
17.944735 5.1049194 -1.0400901
25.963446 7.3860831 -0.24610195
41.344952 11.761816 1.6046844
15.636024 4.4540377 -1.2851468
21.059017 5.9988179 -0.70803398
33.984337 9.6806917 0.49796802
13.801354 3.9366274 -1.4724793
17.9529 5.1207929 -1.0408925
25.977551 7.4097028 -0.24646065
41.320843 11.801744 1.6038065
15.635525 4.4656992 -1.2854687
21.063717 6.016058 -0.70847601
33.924053 9.7019386 0.49688828
45.135689 12.908353 2.8449357
13.801022 3.9469535 -1.4728324
17.957191 5.1423578 -1.0416363
25.985434 7.4413862 -0.24687351
41.351444 11.841714 1.6050338
15.634042 4.4770832 -1.2857105
21.065056 6.0403061 -0.70894796
34.009636 9.7521048 0.49801072
45.11034 12.93518 2.8435991
13.79937 3.9621181 -1.4732407
17.962549 5.1574636 -1.0422783
25.998627 7.464807 -0.24722469
41.379517 11.896652 1.606184
15.630793 4.4938688 -1.28599
21.065445 6.0563364 -0.70924634
33.967915 9.76581 0.49726892
45.106388 12.985181 2.8437438
13.79913 3.9724793 -1.473606
17.963436 5.1712952 -1.0426613
26.000101 7.4947114 -0.24757795
41.252533 11.891332 1.6012963
15.630487 4.5055971 -1.2863305
21.068296 6.0730839 -0.70962816
34.018467 9.818924 0.49781272
13.800264 3.9832408 -1.4741189
17.962833 5.1914978 -1.0431253
26.002779 7.5151486 -0.24782994
41.276859 11.929561 1.6022825
15.628292 4.5226955 -1.2866997
21.066082 6.0963459 -0.70998317
33.999187 9.8390779 0.49739999
13.799356 3.9986379 -1.4746113
17.959349 5.2040787 -1.0432562
26.006828 7.535996 -0.24809535
41.24239 11.96641 1.6010088
15.627628 4.5343299 -1.2870125
21.06744 6.1126823 -0.710316
33.928108 9.8570242 0.49616483
13.799351 4.0090809 -1.4750047
17.958364 5.2173858 -1.043533
26.008596 7.5660405 -0.24845293
41.170502 11.97672 1.598262
15.629012 4.5465636 -1.2874948
21.065969 6.1361799 -0.71069789
33.934158 9.8844776 0.49612328
13.796884 4.0240369 -1.4753336
17.952768 5.2361531 -1.0437099
26.015718 7.5878158 -0.24874848
41.153709 12.003003 1.5976545
15.626174 4.5634918 -1.287815
21.069395 6.1531386 -0.71110177
33.905319 9.9017611 0.49557182
13.795629 4.0341234 -1.4755956
17.952696 5.2497344 -1.0440412
26.021214 7.6189947 -0.24914289
41.124836 12.041326 1.5966015
15.626414 4.5754042 -1.288205
21.069511 6.1691394 -0.71139455
33.796547 9.9084177 0.49378815
13.79347 4.0439472 -1.4757618
17.950472 5.2694955 -1.0444164
26.031292 7.6416807 -0.24946767
41.191154 12.091971 1.5992223
15.624442 4.5925965 -1.2885994
21.070974 6.193532 -0.71187812
33.735664 9.9161491 0.49276978
13.790109 4.0586491 -1.4759991
17.952057 5.2835765 -1.0448459
26.035728 7.6627302 -0.24973881
41.129097 12.12055 1.5968835
15.623876 4.6042824 -1.2889249
21.072071 6.2098398 -0.71220529
33.633236 9.9115562 0.49114531
44.06242 13.001705 2.780436
13.788754 4.0687122 -1.4762533
17.95352 5.2976294 -1.045269
26.041174 7.693974 -0.25013453
41.058266 12.130837 1.5941814
15.62233 4.6156831 -1.2891704
21.071838 6.2337618 -0.71263361
33.618874 9.9455986 0.4907434
44.06004 13.034449 2.7805574
13.787428 4.0787868 -1.4765114
17.95229 5.3177094 -1.0457056
26.046618 7.7153583 -0.25041619
41.052078 12.160177 1.5939898
15.621097 4.6331105 -1.2896297
21.073429 6.2502351 -0.71297878
33.557442 9.9529076 0.48971894
44.050953 13.081943 2.7803936
13.785743 4.0939932 -1.4769325
17.95137 5.3310719 -1.0459917
26.060394 7.739233 -0.25077841
41.064594 12.210675 1.5945501
15.619194 4.644412 -1.2898476
21.074669 6.2666135 -0.71331263
33.619438 10.009611 0.49043205
13.784213 4.104013 -1.4771708
17.947451 5.3503661 -1.0462738
26.071327 7.7721987 -0.25122887
41.021244 12.228961 1.5929172
15.619186 4.656281 -1.2902228
21.074934 6.2907209 -0.7137605
33.674725 10.05167 0.49111071
13.782574 4.1192422 -1.4776001
17.943367 5.362792 -1.0463769
26.09864 7.8001847 -0.25172281
40.961868 12.257983 1.5906885
15.616864 4.6734014 -1.290596
21.077116 6.3074012 -0.7141276
33.621677 10.061405 0.49020955
13.781026 4.129262 -1.4778385
17.937372 5.3746438 -1.046369
26.115297 7.8349633 -0.25223032
40.892742 12.268408 1.5880561
15.616685 4.6852293 -1.290959
21.080332 6.3244014 -0.71453029
33.588684 10.089867 0.48953763
13.780698 4.1396508 -1.4782087
17.930378 5.3930178 -1.0464748
26.132898 7.8601346 -0.25263202
40.868477 12.292234 1.5871664
15.613809 4.7021942 -1.2912893
21.083223 6.3493419 -0.71507001
33.504215 10.09 0.4881798
13.779355 4.154984 -1.4786743
17.925632 5.4052396 -1.046541
26.137278 7.8813534 -0.25290638
40.912251 12.352134 1.5889469
15.614056 4.7141604 -1.2916895
21.0882 6.3669019 -0.71553397
33.453819 10.113045 0.48725587
13.781128 4.1660166 -1.4792721
17.920616 5.4173779 -1.046592
26.127886 7.9083796 -0.2531639
40.949543 12.394594 1.59045
15.612803 4.725678 -1.2919664
21.090818 6.391799 -0.71606654
33.383957 10.117367 0.48611233
13.779756 4.1813555 -1.4797379
17.91761 5.436954 -1.0469333
26.11174 7.9233966 -0.25323996
40.894382 12.409071 1.5883631
15.611149 4.7430286 -1.2924019
21.098112 6.4100957 -0.71661079
33.347813 10.131838 0.48546031
43.028339 13.089415 2.7184536
13.781991 4.192544 -1.4803879
17.917908 5.4507079 -1.0472963
26.095392 7.9482889 -0.2534304
40.83601 12.438073 1.58618
15.611216 4.7549562 -1.2927899
21.103525 6.4278364 -0.7170918
33.184235 10.12011 0.48289162
43.011898 13.117227 2.7176964
13.780278 4.2025356 -1.4806147
17.917774 5.4711742 -1.0478081
26.089163 7.9662991 -0.25360283
40.840767 12.470687 1.5864218
15.612242 4.7671819 -1.2932583
21.106707 6.4529667 -0.71764672
43.007294 13.148647 2.7176881
13.778234 4.2176876 -1.4810128
17.920248 5.4856091 -1.0482998
26.085611 7.9851279 -0.25380147
40.77116 12.496122 1.5838047
15.610914 4.7846541 -1.2937249
21.111824 6.4706507 -0.7181192
13.77576 4.2274508 -1.4811598
17.926025 5.5010686 -1.048986
26.091944 8.0169592 -0.25421342
40.788742 12.532669 1.5845464
15.611657 4.7968073 -1.2941719
21.116373 6.496243 -0.71872288
13.774764 4.2376699 -1.4814667
17.925575 5.5214763 -1.0494831
26.092274 8.0370007 -0.25445056
40.809689 12.570292 1.5854198
15.610408 4.8143196 -1.2946481
21.119328 6.5132947 -0.71912342
26.348755 8.1260738 0.38297763
13.77101 4.252306 -1.4816853
17.930655 5.5367489 -1.0501302
26.094791 8.0577269 -0.2547093
40.741096 12.595892 1.5828456
15.610607 4.8263183 -1.2950521
21.127302 6.5319109 -0.71969563
26.269901 8.1318913 0.38168401
42.40139 13.12542 2.6808138
13.771035 4.2628469 -1.4821041
17.931206 5.5574942 -1.0506887
26.082382 8.0838223 -0.25493982
40.731747 12.624161 1.5825435
15.60823 4.8375244 -1.295243
21.128611 6.5565634 -0.72019202
26.245083 8.1442919 0.38122532
42.354843 13.143421 2.6781573
13.767737 4.2776299 -1.4823748
17.933573 5.5719533 -1.0511791
26.073971 8.1011715 -0.25509229
40.732494 12.671161 1.5826659
15.605931 4.8547301 -1.2956362
21.13394 6.5743961 -0.72067571
26.223991 8.1578207 0.38082096
42.343315 13.188472 2.6778605
13.768188 4.2883124 -1.4828416
17.934921 5.5861049 -1.0516106
26.053612 8.124773 -0.25524542
40.657131 12.678854 1.5798005
15.602456 4.8655982 -1.2957377
21.137316 6.5916348 -0.72109342
26.212938 8.1844997 0.38051382
42.380341 13.232469 2.6804922
13.76622 4.2982445 -1.4830488
17.936907 5.6073356 -1.0522569
26.037195 8.1396027 -0.25531963
40.642727 12.705503 1.5793045
15.59864 4.8823376 -1.2960076
21.13833 6.6162477 -0.72158289
26.216503 8.2057037 0.38046786
36.586864 11.451603 2.3143151
13.765665 4.3138971 -1.4836195
17.936331 5.6209044 -1.0525773
26.014135 8.1523342 -0.2553286
40.656754 12.756639 1.5799464
15.595369 4.8932705 -1.2961278
21.141302 6.6333866 -0.7219882
26.217438 8.2361507 0.38033509
36.54813 11.481515 2.3122439
13.764643 4.3241324 -1.4839307
17.939613 5.6356902 -1.0531249
25.997347 8.176981 -0.25551677
40.574715 12.76202 1.5768236
15.594838 4.9050655 -1.2964766
21.140556 6.6574783 -0.72241956
26.236347 8.2622194 0.38051191
36.522827 11.501586 2.3108971
13.76265 4.3393459 -1.4843497
17.93652 5.6553617 -1.0534769
25.979746 8.1913805 -0.25557926
40.589256 12.797741 1.5774549
15.590535 4.9216595 -1.2967095
21.144163 6.6748433 -0.72284812
36.483456 11.531196 2.308789
13.761645 4.3495941 -1.484665
17.936317 5.6690674 -1.0538216
25.970257 8.2182989 -0.25583953
36.388412 11.515127 1.414284
15.590428 4.9335976 -1.2970955
21.143105 6.6907439 -0.72311771
32.465164 10.286083 0.47054878
36.445305 11.547129 2.3066311
13.759892 4.3596087 -1.4849006
17.931475 5.6881981 -1.0540733
25.970619 8.2383642 -0.25607917
36.402138 11.547437 1.4148785
15.589978 4.9454317 -1.2974539
21.144897 6.7156801 -0.72363871
32.387619 10.286401 0.46930489
36.388195 11.556994 2.3032737
13.755565 4.3740935 -1.4850719
17.931173 5.7018828 -1.0544138
25.9879 8.2638187 -0.25648609
36.42292 11.596023 1.4157789
15.588156 4.9628258 -1.2978971
21.143103 6.7313628 -0.72388434
32.354717 10.300822 0.4687084
36.413986 11.60718 2.3052945
13.753795 4.3841057 -1.4853075
17.928667 5.7148719 -1.0546254
25.988087 8.2938547 -0.25684324
36.51133 11.652248 1.419278
15.586645 4.9743319 -1.298169
21.145071 6.7563853 -0.72441345
32.284199 10.315619 0.4675079
36.452129 11.647378 2.30797
13.751646 4.3939991 -1.4855031
17.927975 5.7353396 -1.0551244
26.012684 8.3217192 -0.25732374
36.611423 11.712362 1.4232324
15.584233 4.9915504 -1.2985662
21.147261 6.7733593 -0.72479689
36.468895 11.694839 2.3094246
13.747689 4.4086065 -1.4857186
17.925669 5.7483997 -1.0553493
26.108744 8.3725471 -0.25851259
36.666611 11.772358 1.4254745
15.583369 5.0032716 -1.2988939
21.153786 6.7917361 -0.72532964
36.467976 11.722628 2.3096302
13.747669 4.4191871 -1.4861463
17.924492 5.7687306 -1.0558224
26.200947 8.4323835 -0.25978521
40.354946 12.987638 1.5689365
15.581532 5.0146837 -1.2991413
21.153084 6.8159537 -0.72577018
25.764545 8.3018608 0.37276426
36.45924 11.74791 2.3093417
13.744943 4.4341969 -1.4864979
17.921938 5.7817197 -1.0560343
26.220888 8.4590082 -0.26022324
40.417763 13.039001 1.5714515
15.58004 5.0322146 -1.2996191
21.157715 6.8337545 -0.72623956
25.715668 8.305933 0.37196252
36.454174 11.788429 2.3094201
13.745384 4.4449363 -1.4869777
17.919413 5.7947202 -1.0562484
26.226841 8.4912615 -0.26064339
36.547409 11.832672 1.4210712
15.579885 5.0441794 -1.3000088
21.158468 6.8503141 -0.72657645
25.969574 8.417985 0.37549204
36.470432 11.821816 2.3107176
13.747258 4.4561458 -1.4876136
17.916218 5.8144178 -1.0566059
26.248398 8.5184908 -0.26109892
36.516983 11.850993 1.4199554
15.577694 5.0614986 -1.3004313
21.156734 6.8742385 -0.72698444
25.753813 8.367919 0.37227786
36.521145 11.866437 2.3142004
13.747521 4.4721456 -1.4882935
17.915968 5.8281646 -1.0569559
26.269001 8.5454531 -0.2615456
36.498405 11.887225 1.4193351
15.57748 5.0734553 -1.300818
21.15909 6.8913388 -0.72737771
25.550379 8.3314114 0.36919674
36.537079 11.91393 2.3156164
13.749596 4.4834375 -1.4889536
17.915113 5.8417206 -1.0572709
26.282204 8.5801935 -0.26204038
36.495113 11.914341 1.4192762
15.577036 5.0853415 -1.3011863
21.161726 6.9167171 -0.72793794
25.459726 8.3215199 0.36779362
36.524323 11.937986 2.3150802
13.750825 4.4997749 -1.4897419
17.915167 5.8625007 -1.0578235
26.297997 8.60567 -0.26244056
36.576431 11.969151 1.4225082
15.573318 5.1021805 -1.3014853
21.166052 6.9344897 -0.72840059
25.409447 8.3247242 0.36697435
36.514599 11.977146 2.3148746
13.751436 4.5106058 -1.4902462
17.91777 5.8772044 -1.0583445
26.309572 8.629797 -0.2627992
36.728558 12.061528 1.4285311
15.573073 5.1141419 -1.3018724
21.172403 6.9529424 -0.72893357
25.344765 8.3329325 0.36590135
36.517914 12.006476 2.3153598
13.750489 4.5209298 -1.4905825
17.916006 5.8974123 -1.0587924
26.313097 8.6614838 -0.26319966
36.777424 12.106027 1.4305035
15.571488 5.1256676 -1.3021481
21.175264 6.978456 -0.72950476
25.319208 8.3441219 0.36544004
36.513981 12.033437 2.315387
13.747394 4.5358701 -1.4909068
17.919247 5.9123483 -1.0593531
26.313868 8.6821032 -0.26345125
36.741943 12.137008 1.4292322
15.568429 5.1427369 -1.3025062
21.177055 6.99544 -0.7298823
25.234863 8.3358603 0.36413074
36.542473 12.085265 2.317611
13.744215 4.5454636 -1.4910032
17.921663 5.927022 -1.0598657
26.316328 8.7134838 -0.26384225
36.747292 12.167234 1.4295138
15.566195 5.1540542 -1.3027295
21.176382 7.0198216 -0.73033386
25.164135 8.3417339 0.36297277
36.547363 12.115195 2.3182008
13.740733 4.5549569 -1.4910674
17.920952 5.9476137 -1.0603797
26.321802 8.735692 -0.26414183
36.69875 12.179598 1.4276993
15.562513 5.1709256 -1.3030382
21.177435 7.0365844 -0.73068744
25.096813 8.3388681 0.36191049
36.573528 12.166391 2.3202825
13.738154 4.5700746 -1.4914521
17.923265 5.9622755 -1.0608883
26.332598 8.7596874 -0.26449519
36.684875 12.217656 1.4272718
15.559815 5.1820936 -1.3032246
21.180071 7.0538826 -0.73109609
25.044682 8.3506794 0.36102235
36.565041 12.191926 2.3200266
13.73484 4.5796247 -1.4915365
17.922625 5.9829149 -1.0614092
26.344416 8.7942705 -0.26498219
36.656906 12.236777 1.4262593
15.558586 5.1937542 -1.3035346
21.180552 7.078692 -0.73159045
24.990171 8.3518944 0.36014596
36.582531 12.226144 2.3214207
13.73297 4.5949869 -1.4920014
17.922245 5.9966984 -1.0617603
26.359566 8.8197861 -0.26538062
36.651695 12.263484 1.4261327
15.55512 5.2107077 -1.3038653
21.187817 7.097568 -0.73216063
31.952013 10.703396 0.46036083
13.730782 4.6049161 -1.4922099
17.923115 6.0109057 -1.0621859
26.367977 8.8533144 -0.26583499
36.666046 12.310996 1.4268067
15.556823 5.2233605 -1.3044231
21.192289 7.1155252 -0.73263502
31.903028 10.724157 0.45948192
13.730464 4.6154757 -1.4926227
17.920792 6.0310116 -1.0626109
26.378557 8.8773642 -0.26618859
36.669106 12.340515 1.4270036
15.555982 5.2412109 -1.3049769
21.198065 7.1421742 -0.73331565
31.887209 10.743622 0.45913887
13.726272 4.6300702 -1.4928397
17.92082 6.0449524 -1.0629885
26.387119 8.9007578 -0.26652232
36.69453 12.391865 1.4281112
15.560722 5.2549076 -1.305792
21.200356 7.159431 -0.73371625
31.88427 10.779824 0.45892394
13.728732 4.6415777 -1.493557
17.921761 6.0592084 -1.063421
26.390251 8.9326057 -0.26692548
40.310417 13.64432 1.5689251
15.566299 5.2689009 -1.3066784
21.205376 7.185873 -0.73437309
31.835678 10.788168 0.4581098
13.724401 4.6561346 -1.493762
17.919975 6.0795231 -1.0638815
26.394217 8.9544897 -0.2672137
40.298672 13.67171 1.5685563
15.571527 5.2888513 -1.3077466
21.206558 7.2027836 -0.73473692
31.833689 10.812276 0.45796654
13.726472 4.6675253 -1.4944395
17.92078 6.09375 -1.0643077
26.403229 8.9781075 -0.26755342
40.30098 13.719569 1.5687797
15.577997 5.3031816 -1.3087108
21.21294 7.2214727 -0.73528153
31.788525 10.834078 0.4571453
13.725187 4.6777806 -1.4947525
17.919914 6.114399 -1.0648255
26.402277 9.0086393 -0.26791704
40.427727 13.79422 1.5738039
15.584196 5.3174357 -1.3096535
21.212601 7.2461543 -0.73575592
31.799807 10.862708 0.45719332
13.72376 4.6933408 -1.4952782
17.920837 6.128685 -1.0652606
26.407141 9.0308867 -0.26821566
40.310234 13.801275 1.5693666
15.586564 5.336473 -1.3104872
21.219795 7.2651587 -0.73633045
31.775589 10.879214 0.45673111
13.721058 4.7031188 -1.4954392
17.922304 6.1431651 -1.0657289
26.4079 9.0620461 -0.26859784
40.470627 13.887764 1.5757033
15.587467 5.3489428 -1.3109872
21.219406 7.2898598 -0.73680532
31.767546 10.91364 0.45644471
13.722282 4.7142467 -1.4960288
17.921751 6.1639562 -1.0662692
26.414494 9.0849257 -0.26891497
40.434357 13.906877 1.574384
15.587368 5.3671603 -1.3116167
21.225271 7.3084455 -0.73733538
31.742748 10.929903 0.45597479
42.489132 14.64677 2.7008283
13.719087 4.7292171 -1.4963666
17.922194 6.1781039 -1.0666784
26.419813 9.1073866 -0.26921952
40.41259 13.946733 1.5736772
15.584934 5.3784952 -1.3118382
21.227982 7.3259602 -0.73775655
31.73572 10.96467 0.45570362
42.448067 14.665778 2.6985679
13.720473 4.7404141 -1.4969765
17.922625 6.192255 -1.0670878
26.426315 9.1406012 -0.26966208
40.418346 13.980307 1.5739961
15.583302 5.39011 -1.3121278
21.231249 7.3519778 -0.73836172
31.69702 10.976075 0.45503473
42.471474 14.707064 2.7004075
13.720003 4.7563405 -1.4976149
17.921391 6.2128434 -1.0675911
26.434874 9.1642294 -0.2700007
40.583965 14.069322 1.5805416
15.579402 5.4070339 -1.3124416
21.23411 7.3695745 -0.73878968
31.7071 11.004362 0.45506635
13.721808 4.7676997 -1.4982731
17.922495 6.2272453 -1.0680424
26.442526 9.1979113 -0.27045649
40.271133 14.00813 1.5685025
15.578815 5.4190192 -1.3128213
21.238579 7.387743 -0.73927432
31.692244 11.036406 0.45468375
13.722136 4.7785525 -1.4987711
17.923023 6.2484717 -1.0686536
26.452766 9.2221813 -0.27081347
40.504082 14.120866 1.5776731
15.574994 5.4359808 -1.3131446
21.240114 7.4132195 -0.73982245
31.680662 11.057178 0.45440486
13.720375 4.7940555 -1.4992737
17.926603 6.2637596 -1.0692545
26.462399 9.2462635 -0.27116469
40.485416 14.161925 1.5770937
15.576663 5.4487658 -1.3137167
21.244511 7.431396 -0.7403062
31.657457 11.086282 0.45390326
13.718446 4.8041306 -1.4995272
17.928844 6.2785912 -1.0697764
26.471388 9.2805204 -0.27163643
40.407566 14.166362 1.5741602
15.57553 5.4605761 -1.3140532
21.243561 7.4560413 -0.74077004
31.642527 11.105859 0.45357683
13.7142 4.8187723 -1.4997615
17.929167 6.2997894 -1.0703795
26.47813 9.303647 -0.27195916
40.59655 14.264451 1.581623
15.572986 5.4780035 -1.3144883
21.250389 7.4751053 -0.74134022
31.667931 11.139613 0.45382866
13.71031 4.8281612 -1.4998026
17.929651 6.3140254 -1.0707985
26.488316 9.3280067 -0.27231771
40.484413 14.272696 1.5774057
15.572345 5.4899979 -1.3148685
21.254034 7.4930658 -0.74180007
31.642439 11.167896 0.45329526
13.708355 4.838233 -1.5000564
17.927542 6.3343925 -1.0712591
26.490795 9.3600731 -0.27272469
40.694733 14.378794 1.585703
15.571143 5.5017991 -1.3152021
21.256659 7.5190268 -0.74239188
31.643475 11.193111 0.45319816
13.70367 4.8527231 -1.5002466
17.926931 6.3482585 -1.0716146
26.500048 9.3841572 -0.27307475
40.610683 14.39695 1.5825828
15.566682 5.5185661 -1.3154794
21.263838 7.5382724 -0.74297684
31.629581 11.213047 0.45288742
13.703015 4.8632603 -1.5006448
17.927891 6.3626871 -1.0720646
26.505552 9.4173555 -0.27351433
40.642567 14.4402 1.5839295
15.566963 5.5309024 -1.3159404
21.266298 7.5642228 -0.74356532
31.614515 11.244987 0.45250428
13.700816 4.8732519 -1.5008746
17.927088 6.3835473 -1.072607
26.515675 9.4418058 -0.27387449
40.495682 14.419862 1.5783099
15.56181 5.5474324 -1.316162
21.271746 7.5828938 -0.74409157
31.650808 11.282795 0.45291218
13.698436 4.8885713 -1.5013217
17.927542 6.3978157 -1.0730288
26.525742 9.4662619 -0.27423459
40.593063 14.502454 1.5822639
15.561006 5.5593925 -1.3165332
21.275597 7.6010118 -0.74456275
31.582159 11.295612 0.45176303
13.696876 4.898797 -1.5016239
17.928389 6.4122319 -1.0734749
26.53611 9.5013008 -0.27472669
40.764305 14.595733 1.5890461
15.557882 5.5705276 -1.316709
21.278532 7.6271973 -0.74517131
31.577578 11.318845 0.45158646
13.694284 4.9140515 -1.5020511
17.926573 6.4327645 -1.0739604
26.549948 9.5271721 -0.27512708
40.606415 14.571189 1.5829988
15.554227 5.5876021 -1.3170612
21.283449 7.6457314 -0.74568146
31.591726 11.348811 0.4516778
56.938206 20.476562 3.6285307
13.692595 4.9242382 -1.5023413
17.925741 6.4465952 -1.0743078
26.561563 9.5627489 -0.27563387
40.76524 14.676387 1.5893538
15.551853 5.5990105 -1.3173022
21.288534 7.6643424 -0.74619824
31.58975 11.385466 0.45148328
56.915077 20.51313 3.6275625
13.692764 4.9350972 -1.5028362
17.924473 6.4673452 -1.074829
26.584015 9.5918026 -0.2761251
40.707626 14.687756 1.5872173
15.548935 5.6163602 -1.3177198
21.291395 7.690568 -0.74680758
31.571878 11.403934 0.45111722
56.896366 20.551277 3.6268771
13.689438 4.9501023 -1.5031875
17.925962 6.4820299 -1.0753173
26.601664 9.6191654 -0.27656713
40.811165 14.773432 1.5914208
15.548444 5.6284571 -1.3181224
21.298019 7.709774 -0.7473802
31.552799 11.43441 0.45067894
56.86385 20.606874 3.6255684
13.688343 4.960515 -1.5035461
17.925753 6.4961085 -1.0757045
26.618856 9.6569138 -0.27713478
41.00341 14.87541 1.5990299
15.548565 5.6407814 -1.3185779
21.299431 7.7355223 -0.7479412
31.554136 11.459824 0.45058772
56.832466 20.640402 3.624079
13.687387 4.9709821 -1.5039208
17.925636 6.5173116 -1.0762987
26.640629 9.6858644 -0.27762136
40.949554 14.88823 1.5970426
15.547577 5.658854 -1.3191633
21.305651 7.7546215 -0.74850136
31.547232 11.482251 0.45037895
13.68362 4.9858398 -1.5042282
17.928404 6.5324926 -1.0768667
26.659403 9.7137671 -0.27807736
40.800831 14.882552 1.5914128
15.549065 5.6716924 -1.319737
21.314568 7.7747231 -0.74915713
31.518684 11.509254 0.44980648
13.681076 4.9957342 -1.5044305
17.928392 6.5537639 -1.0774702
26.672546 9.7502079 -0.27860579
40.735447 14.890933 1.5889769
15.552152 5.6851234 -1.3204473
21.314621 7.8000422 -0.74967378
31.529902 11.538303 0.44985673
13.678376 5.0109887 -1.5048584
17.931936 6.5692544 -1.0780869
26.687737 9.7768879 -0.27902588
40.86058 14.985201 1.5940315
15.551332 5.7032924 -1.321052
21.323936 7.8203363 -0.75034553
31.486088 11.547201 0.44912204
13.675923 5.0209217 -1.5050728
17.935431 6.5847397 -1.0787015
26.698158 9.8124285 -0.27952775
41.106781 15.108059 1.6037536
15.556438 5.7174892 -1.3219365
21.325401 7.8462186 -0.75091434
31.493776 11.587452 0.4490675
42.594044 15.671555 2.7184572
13.67452 5.0312428 -1.5054038
17.933601 6.6053877 -1.0791998
26.707062 9.8368692 -0.27988338
41.050629 15.119959 1.6016808
15.556532 5.736022 -1.3226223
21.330647 7.8650603 -0.75144464
31.504372 11.616328 0.4491092
42.552418 15.689975 2.7161934
13.672072 5.0466042 -1.505864
17.93454 6.6199565 -1.0796628
26.713488 9.8604212 -0.28021353
40.8074 15.078921 1.5923679
15.55792 5.7488756 -1.3231934
21.334703 7.8834801 -0.75193387
31.469666 11.640981 0.44845077
42.574936 15.748944 2.7182236
13.670942 5.057034 -1.5062271
17.933784 6.6339073 -1.0800245
26.715122 9.8928251 -0.28062549
40.944584 15.162108 1.5978405
15.559665 5.761869 -1.3237958
21.338766 7.910388 -0.75259769
31.481859 11.670484 0.4485155
42.6642 15.815833 2.7243204
13.668684 5.0724778 -1.5067117
17.93084 6.6541724 -1.0804594
26.717913 9.9150734 -0.28091845
40.893921 15.175821 1.5959837
15.557551 5.7796197 -1.3242986
21.342457 7.9287076 -0.75307572
31.483593 11.696133 0.44843128
42.754539 15.900268 2.7306898
13.669027 5.0834646 -1.5072397
17.929729 6.668005 -1.0808015
22.392391 8.3365526 -0.23577084
40.987774 15.259502 1.5998286
15.556241 5.7914953 -1.3246433
21.350155 7.948535 -0.75369596
31.446627 11.719891 0.44774175
42.912796 15.993235 2.7412014
13.668742 5.094224 -1.5076994
17.929852 6.6894321 -1.081424
22.374853 8.3478136 -0.23580764
36.415924 13.586384 1.4214896
15.555189 5.8096581 -1.3252397
21.351395 7.9744644 -0.75426376
31.414839 11.733028 0.44718075
36.304142 13.559117 2.3193936
13.666807 5.1098089 -1.5082245
17.92864 6.7032428 -1.0817618
22.362982 8.3611746 -0.23590413
36.356792 13.607713 1.4193456
15.555388 5.8221102 -1.3257151
21.355581 7.9930205 -0.75476176
31.423388 11.773732 0.44713995
36.311813 13.60533 2.3204007
13.666974 5.1207495 -1.5087366
17.93034 6.7181497 -1.0822762
22.33172 8.3761511 -0.23590679
36.357712 13.637001 1.4194916
15.554046 5.8339906 -1.3260599
21.357023 8.0190687 -0.75533909
31.425585 11.799581 0.44706303
36.250412 13.611193 2.3168225
13.665933 5.1312418 -1.5091163
17.929163 6.7391281 -1.0828242
22.30718 8.384717 -0.2358693
36.361855 13.667521 1.4197645
15.551414 5.8515873 -1.3265262
21.358139 8.0365047 -0.75573015
31.377897 11.806676 0.44627669
36.256851 13.656948 2.3177545
13.661083 5.14575 -1.5093243
17.930943 6.7540879 -1.0833455
22.275185 8.3904428 -0.23575267
15.548956 5.8630581 -1.3267779
21.360811 8.0545387 -0.75617701
31.397276 11.851517 0.44639054
36.227184 13.674661 2.3162065
13.659405 5.1560097 -1.5096357
17.92874 6.7747049 -1.0838344
22.259333 8.4110994 -0.23591767
29.983562 11.329843 1.1709526
15.545652 5.8742113 -1.3269583
21.3582 8.0791111 -0.75661409
30.649246 11.593611 0.43565026
41.893375 15.846898 2.6788819
13.652638 5.1697965 -1.509635
17.932898 6.7905869 -1.0845015
22.246805 8.424119 -0.23600698
29.93395 11.346931 1.1691552
15.541555 5.8912697 -1.3273035
21.359669 8.0967159 -0.75701982
30.092791 11.407143 0.42763761
41.872955 15.889318 2.678185
13.651269 5.1801777 -1.5099827
17.929239 6.8035173 -1.0846968
22.247499 8.4510307 -0.23634797
29.92384 11.366998 1.1688545
15.540669 5.9033456 -1.3276923
21.357374 8.1214361 -0.75747019
30.053961 11.428433 0.4269315
41.82637 15.905053 2.6756124
13.648984 5.1902142 -1.5102299
17.928984 6.8249078 -1.0853074
22.248564 8.4692135 -0.23658206
29.88088 11.374557 1.167271
15.538287 5.9210677 -1.328187
21.360815 8.1398182 -0.7579475
30.024626 11.441277 0.42641214
35.765377 13.628865 2.2882433
13.647411 5.2059808 -1.510808
17.927561 6.8386989 -1.0856395
29.850874 11.398939 1.1662418
15.538179 5.9334526 -1.3286444
21.365152 8.1585569 -0.7584573
30.035618 11.4815 0.4264144
35.732059 13.659038 2.2866375
13.646522 5.216558 -1.5112122
17.929113 6.8536334 -1.0861527
29.83362 11.416221 1.1656635
15.53948 5.946383 -1.3292232
21.371902 8.1867886 -0.7592321
30.049519 11.510864 0.42650926
35.726788 13.685617 2.2866526
13.645391 5.2325096 -1.5118427
17.927816 6.8746634 -1.0867043
22.248734 8.5315771 -0.23736569
29.815262 11.433065 1.1650425
15.537957 5.9644618 -1.3297961
21.383818 8.208477 -0.76001316
30.103832 11.555777 0.42717758
29.896324 11.488097 1.9139243
13.64343 5.2426863 -1.5121305
17.931196 6.8903227 -1.0873303
22.277153 8.5692453 -0.23800541
29.802738 11.464076 1.1646987
15.538252 5.9770246 -1.3302912
21.39983 8.2317696 -0.76094085
30.087893 11.585823 0.42679781
29.84457 11.492127 1.9109079
13.64447 5.2540212 -1.5127521
17.928436 6.9108176 -1.0877962
22.282169 8.5890369 -0.23828377
29.802929 11.488041 1.164804
15.538183 5.9956851 -1.3309919
21.415413 8.2635183 -0.76203436
30.045874 11.593736 0.42609963
29.794607 11.49678 1.9080062
13.641303 5.2692113 -1.5131618
17.929968 6.9257889 -1.0883121
29.808916 11.526217 1.1651857
15.53758 6.0079184 -1.3314124
21.430426 8.2865047 -0.7629292
30.034496 11.613441 0.42583629
29.77166 11.523759 1.9069842
13.642612 5.2806654 -1.5138156
17.928286 6.9395266 -1.0886339
26.837048 10.398627 -0.28767145
29.813974 11.552105 1.1654825
15.537514 6.0203643 -1.3318797
21.44375 8.317481 -0.76394594
30.020136 11.644042 0.42548001
29.751078 11.53968 1.9059653
13.641086 5.2910275 -1.514156
17.924706 6.9597335 -1.0890538
26.829926 10.417417 -0.28786689
29.830473 11.582457 1.1662273
15.533583 6.0375581 -1.3322542
21.454309 8.3388128 -0.76468462
30.009819 11.664148 0.42523211
29.744446 11.572957 1.9059916
13.638311 5.3063889 -1.5146142
17.92387 6.9738126 -1.0894288
26.818348 10.434472 -0.28801468
29.868536 11.633244 1.1678665
15.531425 6.0492034 -1.3325442
21.461174 8.3587313 -0.76529258
30.015095 11.702394 0.4251546
29.722748 11.588413 1.9049031
13.633725 5.3155665 -1.5146168
17.919672 6.993794 -1.0898135
26.802601 10.460675 -0.28825396
29.913361 11.674761 1.1697208
15.529764 6.0610466 -1.332878
21.458801 8.3836985 -0.76575392
31.121748 12.158896 0.44072482
29.724468 11.612996 1.9053161
13.628137 5.3298349 -1.5147656
17.920481 7.0085301 -1.0902903
26.783394 10.474731 -0.28831989
29.917488 11.712488 1.1700355
15.524701 6.0778122 -1.3331592
21.453411 8.3988609 -0.76592624
31.227278 12.225262 0.44211388
29.739973 11.654966 1.9067665
13.622848 5.3387346 -1.5146918
17.920986 7.0231566 -1.0907496
26.758989 10.497508 -0.28846616
29.97407 11.758779 1.1723515
15.523745 6.0899401 -1.3335553
21.437292 8.4184513 -0.76589847
31.209555 12.25603 0.44170511
29.753183 11.684112 1.9079192
13.620193 5.3486662 -1.5149118
17.922033 7.0452256 -1.0914575
26.730824 10.507998 -0.28843528
29.988857 11.788745 1.1730337
15.520933 6.1075997 -1.3340329
21.41938 8.4286814 -0.76562411
31.19227 12.274384 0.44135547
13.614786 5.3630061 -1.5150847
17.923162 7.0601201 -1.0919567
26.701674 10.518067 -0.28839359
34.801079 13.722543 1.3614489
15.521185 6.1202159 -1.3345351
21.395071 8.4363699 -0.76512098
31.186487 12.309839 0.44111633
34.704292 13.698378 2.2263055
13.613993 5.3736758 -1.5155139
17.928343 7.0766234 -1.0927038
26.67037 10.538013 -0.28846487
34.769825 13.738274 1.3603482
15.521391 6.1328211 -1.3350344
21.367268 8.451272 -0.7646758
31.179523 12.332256 0.44091311
34.706593 13.727298 2.226814
13.611126 5.3890252 -1.5159727
17.926569 7.09763 -1.0932443
26.646843 10.55023 -0.28848353
34.792789 13.775438 1.3613696
15.521752 6.1517639 -1.3357896
21.341032 8.4581299 -0.76410329
31.174723 12.355534 0.44074059
34.694393 13.764505 2.2265749
13.611251 5.4000697 -1.5165068
17.928926 7.1130457 -1.0938215
26.622456 10.572837 -0.28862941
34.780571 13.81275 1.361077
15.521354 6.1641474 -1.3362392
21.317991 8.4662228 -0.76364493
31.163404 12.388824 0.44042394
34.689716 13.790689 2.2266386
13.610754 5.4108734 -1.5169724
17.92635 7.1337595 -1.0943159
26.60857 10.588834 -0.28875244
34.755188 13.830767 1.3602079
15.520015 6.1824393 -1.3368515
21.292496 8.4819221 -0.763282
31.176521 12.41925 0.44050497
34.699692 13.822715 2.227644
13.611021 5.4274921 -1.5177857
17.928856 7.14926 -1.0949043
26.5909 10.603312 -0.28883439
34.750488 13.871067 1.3602116
15.519266 6.1946983 -1.3372731
21.277645 8.4932232 -0.76311707
31.134109 12.427547 0.4398016
13.612307 5.4390221 -1.5184528
17.930336 7.1643624 -1.0954311
26.565092 10.625277 -0.28896487
34.703835 13.880541 1.3585113
15.517966 6.2067428 -1.3376483
21.260323 8.5121307 -0.7630477
31.112381 12.456661 0.43933877
13.615206 5.4512062 -1.5193011
17.929438 7.1857862 -1.0960321
26.536818 10.635464 -0.28893131
34.620766 13.875361 1.3553859
15.515096 6.2244487 -1.3381331
21.255339 8.5359726 -0.76342195
31.101498 12.49011 0.43902951
13.614267 5.4728994 -1.5202492
17.929203 7.2074919 -1.0966755
26.495655 10.651183 -0.28889415
34.491016 13.865297 1.3504961
15.511626 6.2419233 -1.3385682
21.259367 8.5548306 -0.76393616
31.071032 12.503073 0.43849599
13.617569 5.4852734 -1.5211461
17.927958 7.2215347 -1.0970389
26.448656 10.664476 -0.28879273
34.390144 13.866597 1.3467371
15.513179 6.2551355 -1.339193
21.275181 8.5784569 -0.76487494
31.08835 12.547885 0.43858528
13.618591 5.496738 -1.5217896
17.922438 7.2411332 -1.0973616
26.40839 10.669681 -0.28862712
34.377205 13.88929 1.3463584
15.511192 6.2732263 -1.3397592
21.292889 8.6115313 -0.76606894
31.097509 12.576836 0.43861115
13.617243 5.512784 -1.5224347
17.91943 7.2544751 -1.0976188
26.364473 10.673353 -0.28842106
34.667679 14.048897 1.3579296
15.512827 6.2864928 -1.3403937
21.321964 8.6406155 -0.76748782
31.085955 12.610057 0.43829346
13.617702 5.5240378 -1.5230179
17.919306 7.2689891 -1.0980533
26.322807 10.688581 -0.28837609
34.923168 14.180825 1.3680688
15.513513 6.2993832 -1.340947
21.343639 8.6754313 -0.76882899
31.08746 12.635948 0.43821162
13.613586 5.5389776 -1.5233573
17.915394 7.2892599 -1.0984782
26.280676 10.692853 -0.28818846
34.900795 14.200131 1.3673246
15.511799 6.3176179 -1.3415418
21.367113 8.7023592 -0.77004975
31.034138 12.639528 0.43735728
13.613521 5.5500312 -1.5238843
17.92001 7.3057232 -1.0992054
26.249172 10.712087 -0.28825399
34.934166 14.256368 1.3688321
15.51127 6.3300309 -1.3419925
21.385355 8.7271996 -0.7710833
31.028482 12.675124 0.43712366
33.788502 13.80259 2.1736939
13.611971 5.5604854 -1.5242462
17.923601 7.3290858 -1.1000936
26.214064 10.719114 -0.2881425
34.977837 14.302682 1.3706775
15.50826 6.3477554 -1.3424784
21.396141 8.7577505 -0.77203786
31.011496 12.693455 0.43678191
33.780964 13.827038 2.1735806
13.608319 5.5756292 -1.5246422
17.926846 7.3450246 -1.1007391
34.969933 14.342212 1.3705704
15.507275 6.3599958 -1.3428919
21.406452 8.7794237 -0.77278799
30.983015 12.719694 0.43622747
33.732975 13.848657 2.171052
13.606499 5.5859799 -1.5249761
17.932384 7.3619194 -1.1015267
34.938255 14.357722 1.3694648
15.506388 6.372282 -1.3433148
21.412186 8.8079815 -0.7735635
30.968712 12.739094 0.43592405
33.59396 13.818999 2.1624777
13.604742 5.5963607 -1.5253181
17.930859 7.383244 -1.1021055
34.886574 14.364962 1.3675755
15.504769 6.3906035 -1.3439258
21.418516 8.8280735 -0.77417201
30.963604 12.762275 0.43575025
33.583275 13.855741 2.1623511
13.601949 5.6118731 -1.5258151
17.93128 7.3980627 -1.1025808
34.985146 14.448416 1.3716459
15.504758 6.403266 -1.344427
21.423384 8.8475828 -0.7747286
30.923155 12.783503 0.43502852
33.568813 13.877208 2.1617956
13.600639 5.6224475 -1.5262096
17.926973 7.4182639 -1.1029915
35.023174 14.492751 1.3732756
15.506536 6.416676 -1.3450842
21.42391 8.874073 -0.77531976
30.955904 12.822353 0.43538761
33.540253 13.892826 2.1603327
13.599467 5.6386452 -1.5268922
17.926538 7.4327459 -1.103416
25.832613 10.710783 -0.2858496
35.024254 14.536174 1.3735272
15.504758 6.4349651 -1.3456864
21.427477 8.8930807 -0.77583104
30.907446 12.827568 0.43460467
33.507881 13.920545 2.158814
13.597886 5.6491179 -1.5272586
17.923931 7.4463339 -1.1037077
25.744701 10.705941 -0.28528473
34.957336 14.537017 1.371043
15.505539 6.4479823 -1.3462596
21.428635 8.919878 -0.77644753
30.92429 12.872538 0.43468955
33.443092 13.921013 2.1550179
13.598054 5.6603227 -1.5278226
17.918921 7.4662652 -1.1040788
25.712162 10.71347 -0.28519616
35.021778 14.592502 1.3737115
15.503689 6.4662642 -1.346859
21.434288 8.9397926 -0.77703631
30.877447 12.878338 0.43393007
33.39883 13.943642 2.1527348
13.592894 5.6748829 -1.5280622
17.918772 7.4808888 -1.1045235
25.672125 10.717828 -0.28502402
35.031342 14.63956 1.3742995
15.504156 6.4791698 -1.3474075
21.440031 8.9597654 -0.77762926
30.882324 12.918354 0.43384725
13.591571 5.6854763 -1.5284611
17.918221 7.5027027 -1.1051723
25.631773 10.732515 -0.28498393
35.049675 14.675973 1.3751616
15.503822 6.4917479 -1.3478873
21.444132 8.9878693 -0.77835637
30.863575 12.935836 0.43348309
34.927002 14.638939 2.2520318
13.586025 5.6998806 -1.5286605
17.920486 7.5183606 -1.1057683
25.581625 10.732514 -0.28469822
35.016594 14.705237 1.3740791
15.503645 6.5107636 -1.348637
21.449726 9.0078239 -0.77894592
30.874527 12.965774 0.43353623
34.988243 14.707701 2.256583
13.58343 5.7099471 -1.5289184
17.925617 7.535234 -1.106542
25.541603 10.747192 -0.28466055
15.503537 6.5234547 -1.349139
21.450491 9.0345812 -0.77955467
30.835558 12.987411 0.43283844
34.977982 14.732129 2.2563245
13.579001 5.719244 -1.5289708
17.927408 7.5580878 -1.10734
25.508753 10.754337 -0.28456637
35.083416 14.790958 1.3769915
15.502998 6.5423455 -1.3498609
21.453346 9.0534229 -0.78004658
30.821089 13.006659 0.43253508
34.98225 14.762691 2.2570045
13.573563 5.7336965 -1.5291865
17.926144 7.5722985 -1.1077212
25.480331 10.763312 -0.28452125
35.077019 14.831542 1.3769598
15.502507 6.5548921 -1.3503319
21.456617 9.0724554 -0.78055435
30.797743 13.034819 0.43205738
34.995342 14.811408 2.2584589
13.569189 5.7430158 -1.5292469
17.928461 7.5880313 -1.1083245
20.336882 8.6157417 -0.227414
35.081833 14.862456 1.377296
15.503978 6.5682769 -1.3509747
21.455112 9.0983162 -0.78108412
30.790796 13.057233 0.43186
34.993084 14.839267 2.2587211
13.563618 5.7574134 -1.5294507
17.923725 7.6081686 -1.1087235
20.318958 8.6248846 -0.22743112
32.689518 13.875875 1.2835126
15.49973 6.5856304 -1.3513784
21.459099 9.1176872 -0.78161973
30.787067 13.081017 0.43170792
32.642082 13.882643 2.1075425
13.561517 5.7676983 -1.5297693
17.928415 7.6249352 -1.1094759
20.288925 8.6372223 -0.22742131
32.654076 13.901205 1.2823287
15.501784 6.5992827 -1.3520746
21.462099 9.1366549 -0.78212029
30.762037 13.108429 0.43120757
32.591934 13.88819 2.1046875
13.559264 5.7779222 -1.5300719
17.92676 7.6464095 -1.1100684
20.265572 8.6439972 -0.22737719
32.681965 13.940037 1.2835634
15.498111 6.6168985 -1.3525318
21.461092 9.1627855 -0.78267163
30.787367 13.144627 0.43146306
32.620972 13.927483 2.1069474
13.556335 5.7934556 -1.5305783
17.93432 7.6644373 -1.1110011
20.227419 8.6444197 -0.22716667
32.63567 13.960702 1.2819551
15.498956 6.6300559 -1.3531251
21.465382 9.1823397 -0.78322101
30.755816 13.169251 0.4308719
32.572048 13.946939 2.1043656
13.556243 5.8046117 -1.531127
17.936378 7.6801305 -1.1115942
20.188807 8.6529322 -0.22705922
15.497071 6.6420522 -1.3534811
21.462708 9.2077961 -0.783714
30.725079 13.181481 0.43034223
32.494053 13.940394 2.0997126
13.554748 5.820776 -1.531799
17.941038 7.7043676 -1.1125829
20.147083 8.6517038 -0.22680731
15.493528 6.6597476 -1.3539541
21.46685 9.2273235 -0.78425986
30.76055 13.222133 0.43073991
58.903187 25.343346 3.8072813
13.557417 5.8331356 -1.5326627
17.93708 7.7175045 -1.1128051
20.102459 8.657485 -0.22663076
15.49069 6.6713443 -1.3542289
21.469757 9.2463369 -0.78476131
30.664371 13.218854 0.42924511
58.875263 25.380056 3.8061812
13.559753 5.8453636 -1.5334902
17.939291 7.7407293 -1.1136453
20.058249 8.6550512 -0.22634943
44.178947 19.063032 1.7362492
15.486185 6.6886377 -1.3546208
21.471094 9.2735786 -0.78540438
30.712152 13.264884 0.42981523
58.869404 25.426281 3.8065093
13.561813 5.8631001 -1.5345702
17.936131 7.7542233 -1.1139189
20.017889 8.6542177 -0.22611089
44.197132 19.125803 1.7372563
15.485363 6.7011137 -1.355074
21.472921 9.292161 -0.78586829
30.676001 13.274689 0.42921081
58.886292 25.506777 3.808666
13.564053 5.8753109 -1.5353899
17.933426 7.7679181 -1.1142215
19.972008 8.6592178 -0.2259178
44.095779 19.118505 1.7334681
15.485066 6.7138243 -1.3555743
21.475958 9.3201885 -0.78657621
30.687885 13.318004 0.42922944
58.90126 25.562111 3.8103468
13.56589 5.8873582 -1.5361654
17.926237 7.7871089 -1.1144819
19.934538 8.6595097 -0.22571065
44.027866 19.125586 1.7309945
15.48412 6.732686 -1.3562825
21.475311 9.3377295 -0.78695124
30.668375 13.334987 0.42885831
58.939316 25.652006 3.8138828
13.564442 5.9036169 -1.5368545
17.926044 7.8019066 -1.1149426
19.89661 8.6595507 -0.22549777
44.057037 19.193127 1.7324376
15.484441 6.7456832 -1.3568391
21.481668 9.3583317 -0.78758365
30.631842 13.357261 0.42820045
58.900578 25.684072 3.8120944
13.563904 5.9146495 -1.5373638
17.917568 7.8205452 -1.1151253
19.855524 8.6664114 -0.22535682
44.091763 19.244888 1.7340016
15.484394 6.7585287 -1.3573647
21.478861 9.3838816 -0.78808111
30.677811 13.402803 0.42874503
13.5605 5.9300737 -1.5378351
17.918316 7.8357677 -1.1156461
19.818941 8.6669207 -0.22515799
44.086121 19.297413 1.7340795
15.481361 6.7765145 -1.357895
21.484209 9.4040852 -0.78867853
30.61746 13.4019 0.42780387
13.560156 5.9412036 -1.5383687
17.919157 7.8510423 -1.1161739
19.778767 8.674037 -0.22502606
44.073612 19.328613 1.7337884
15.478686 6.7882242 -1.3581923
21.481169 9.4295721 -0.78916991
30.630236 13.445732 0.42783591
13.557738 5.9514298 -1.5386683
17.916056 7.8720574 -1.1166952
19.741056 8.6739359 -0.22481327
15.474729 6.805819 -1.3586447
21.485119 9.4492016 -0.78971785
30.627281 13.469944 0.42769709
13.553831 5.966651 -1.5390874
17.916653 7.8872471 -1.1172098
19.704178 8.6741495 -0.2246094
31.69141 13.964363 1.2470554
15.472959 6.8179359 -1.3590236
21.485334 9.4672031 -0.79012936
30.583679 13.489007 0.42694232
13.552212 5.9772367 -1.53948
17.914579 7.908741 -1.1177982
19.664566 8.6813059 -0.2244819
31.662806 13.978164 1.2460763
15.471107 6.8300223 -1.3593962
21.486471 9.494586 -0.79077774
30.604803 13.523854 0.42714
31.609655 13.967886 2.0485344
13.54824 5.9924402 -1.5398953
17.916645 7.924603 -1.1184067
19.626562 8.6809063 -0.22426403
31.604362 13.991927 1.243997
15.467778 6.8479161 -1.3599083
21.489258 9.5137539 -0.79128557
30.602322 13.548302 0.42700827
31.515886 13.965917 2.0430486
13.545429 6.0025067 -1.5401547
17.917662 7.9400129 -1.1189506
19.59243 8.6903515 -0.22419788
31.620716 14.025578 1.2447886
15.468325 6.8610778 -1.360494
21.494774 9.5341492 -0.79189479
30.543676 13.560611 0.42604476
31.518972 13.993617 2.0436442
13.544421 6.0133767 -1.5406202
17.919127 7.9631228 -1.1197646
19.558765 8.6917658 -0.22402854
31.57304 14.030817 1.2430601
15.465992 6.8794346 -1.3610972
21.495829 9.5615692 -0.79254407
30.539022 13.584075 0.42588317
31.523565 14.022011 2.0443389
13.539522 6.0281825 -1.5409348
17.919647 7.9783401 -1.1202799
19.527998 8.6944237 -0.22389196
15.466619 6.8926511 -1.3616925
21.501305 9.5819902 -0.79315382
30.538696 13.622255 0.4257338
13.537004 6.0383887 -1.5412307
17.924751 7.9956112 -1.1210827
19.489918 8.7019367 -0.22377901
15.468762 6.9065547 -1.3624227
21.499413 9.6081457 -0.79369706
30.514738 13.637118 0.42530349
13.532219 6.0532532 -1.5415616
17.922125 8.0169525 -1.1216456
19.45542 8.7028284 -0.22359861
15.466805 6.9251151 -1.3630639
21.502956 9.6277447 -0.79423755
30.53088 13.669912 0.42543215
13.529505 6.0633779 -1.5418375
17.925486 8.0334787 -1.1223419
19.408232 8.7061224 -0.2233796
15.468493 6.9388394 -1.3637568
21.505058 9.6467152 -0.79472554
30.502121 13.695399 0.42488727
13.526286 6.0732789 -1.5420568
17.923882 8.0553102 -1.122972
19.367018 8.7038813 -0.22312067
40.884834 18.374369 1.6108445
15.46671 6.9575043 -1.3644172
21.504017 9.6733103 -0.79530376
30.467442 13.705395 0.42430833
13.522561 6.0886302 -1.5425131
17.927565 8.0720139 -1.1236908
19.323717 8.7006416 -0.22283703
40.843163 18.407076 1.6094997
15.467165 6.9706964 -1.3650037
21.508287 9.6932917 -0.79587376
30.467497 13.743799 0.42416549
13.520954 6.0992627 -1.5429184
17.92732 8.0869617 -1.1241647
19.279171 8.7048779 -0.22264595
40.723042 18.387156 1.6049646
15.465409 6.9828992 -1.3653961
21.509857 9.7211113 -0.79655135
30.440243 13.757089 0.42369053
13.516988 6.1145167 -1.5433508
17.926081 8.109005 -1.1248223
19.250097 8.7079344 -0.22252528
40.735279 18.426928 1.6056463
15.461977 7.0008512 -1.365916
21.514797 9.7414379 -0.79714823
30.430136 13.778112 0.42345443
13.515466 6.1251988 -1.5437684
17.925879 8.1239939 -1.1253009
19.219694 8.7184381 -0.22249648
40.692513 18.458939 1.6042608
15.458992 7.0125089 -1.366202
21.519505 9.7616787 -0.79773736
30.419394 13.811652 0.42316204
13.512663 6.135303 -1.5440406
17.922462 8.1450796 -1.1258249
19.198915 8.7251787 -0.22247115
40.666832 18.481533 1.6034496
15.457381 7.0247936 -1.3666104
21.52202 9.7900085 -0.79845405
30.421478 13.838223 0.42309588
13.507171 6.149878 -1.5443033
17.924503 8.1611099 -1.1264465
25.012123 11.388137 -0.29011357
40.639477 18.520473 1.6026741
15.453404 7.042521 -1.3670866
21.521818 9.8080559 -0.79886305
30.37023 13.840508 0.42228821
13.504066 6.1598501 -1.5445433
17.926884 8.177309 -1.1270906
24.993713 11.411369 -0.29032153
40.628681 18.549818 1.6024512
15.453363 7.0555358 -1.3676362
21.524063 9.8363132 -0.79957247
30.371708 13.879612 0.42216662
13.502933 6.1707253 -1.5450096
17.927591 8.2003222 -1.1278784
24.981405 11.426832 -0.29045984
40.72702 18.629089 1.6065344
15.450131 7.0736213 -1.3681817
21.526237 9.8554792 -0.80007154
30.356688 13.898375 0.4218632
13.498215 6.1856647 -1.5453656
17.929087 8.2161474 -1.1284693
24.971006 11.443163 -0.29062048
30.574131 14.023755 1.2062707
15.450383 7.0867882 -1.3687598
21.531269 9.8759718 -0.80067766
30.342653 13.930403 0.42152646
13.498792 6.1973357 -1.5460303
17.928755 8.2387238 -1.1291952
24.953611 11.466825 -0.29084074
30.560085 14.043144 1.2058715
15.449563 7.0994711 -1.3692439
21.533251 9.9041872 -0.80138135
30.340906 13.955256 0.42140788
30.500248 14.028544 1.9850845
13.495633 6.2130051 -1.5465685
17.925861 8.2525558 -1.1295118
24.944286 11.483639 -0.29101419
30.538992 14.072204 1.2052727
15.447412 7.118084 -1.3698901
21.541643 9.9262743 -0.80211473
30.290186 13.957556 0.42060933
30.455816 14.046767 1.9828012
13.494987 6.2241292 -1.5470959
17.927065 8.2682829 -1.1300875
24.929264 11.508377 -0.29126263
30.566277 14.110655 1.206506
15.447485 7.1311965 -1.3704559
21.542818 9.9541779 -0.80279136
30.259602 13.981896 0.42004383
30.462475 14.075637 1.9836421
13.492004 6.23418 -1.5473564
17.92235 8.2888803 -1.1305416
24.916437 11.523564 -0.29139549
30.537363 14.123178 1.2055218
15.445225 7.1497841 -1.3710963
21.551413 9.9764128 -0.80353457
30.231226 13.994406 0.41955626
30.458811 14.112669 1.9840165
13.490671 6.2507162 -1.5481093
17.922144 8.303978 -1.1310304
24.905725 11.539724 -0.29155323
40.843609 18.941643 1.6126976
15.445167 7.1628542 -1.3716528
21.556833 9.9972029 -0.80416048
30.205399 14.020877 0.41905761
13.488303 6.2610607 -1.5484427
17.921385 8.3264332 -1.1317372
24.891712 11.564909 -0.29181412
40.872868 18.989895 1.6140653
15.445168 7.175961 -1.3722159
21.556433 10.02446 -0.80478257
30.175949 14.032822 0.41855577
13.486374 6.2773395 -1.5491312
17.922348 8.3420992 -1.1323023
24.881187 11.581145 -0.29197437
40.940834 19.056236 1.6169628
15.441232 7.1938024 -1.3727124
21.560572 10.044697 -0.8053627
30.119944 14.03236 0.41768593
13.485535 6.2884073 -1.5496428
17.922451 8.3573751 -1.1328139
24.873114 11.609094 -0.29230565
40.976585 19.125109 1.618697
15.442301 7.2074256 -1.3733729
21.562393 10.063872 -0.80585706
30.108952 14.065632 0.41739422
13.48525 6.2997398 -1.5502193
17.92071 8.3794212 -1.1334633
24.866592 11.627199 -0.29251343
41.039085 19.189184 1.6213822
15.439176 7.225666 -1.3739449
21.559862 10.090199 -0.80640322
30.038633 14.058338 0.41632691
13.481305 6.3151035 -1.5506815
17.921911 8.3952351 -1.1340467
24.86059 11.64555 -0.2927275
15.440146 7.2392654 -1.3745995
21.559381 10.108329 -0.80681336
30.006395 14.081574 0.41574162
13.48026 6.3260942 -1.5511731
17.91798 8.4086533 -1.1343062
24.847847 11.671327 -0.29300499
15.438887 7.2518268 -1.3750563
21.560755 10.136528 -0.80750817
29.957325 14.084074 0.41496971
13.476848 6.341722 -1.5517002
17.914412 8.4298811 -1.1348442
24.841389 11.689468 -0.29321423
41.03397 19.309116 1.6219435
15.436767 7.2705722 -1.3757229
21.560555 10.154819 -0.80793059
29.914095 14.089258 0.41427904
13.475078 6.3523836 -1.5521111
17.911055 8.4435797 -1.1351418
24.825422 11.713724 -0.29345429
41.016388 19.353334 1.6215789
15.433404 7.2821574 -1.3759948
21.567225 10.176364 -0.80861127
29.875488 14.10932 0.413607
13.473546 6.363162 -1.5525503
17.909067 8.4655762 -1.135783
24.820097 11.732404 -0.29367745
40.992821 19.377214 1.6208683
15.430614 7.3006072 -1.3766052
21.569147 10.2049 -0.80933082
29.823793 14.110379 0.41280004
13.468757 6.378159 -1.552924
17.909948 8.4812956 -1.1363515
24.812321 11.749928 -0.29387182
40.879391 19.375998 1.6167158
15.429058 7.3130584 -1.3770405
21.574535 10.225889 -0.80996567
29.776186 14.126035 0.4120045
13.468292 6.3894539 -1.553489
17.917088 8.4999943 -1.1373181
24.804306 11.777948 -0.29420701
40.860542 19.402008 1.6161928
15.428829 7.3261456 -1.3775952
21.576183 10.254355 -0.81067795
29.723457 14.12645 0.4111841
13.462772 6.4041152 -1.5537817
17.919401 8.5240917 -1.1382374
24.798544 11.796435 -0.29442585
40.837479 19.426006 1.6155039
15.425671 7.3444514 -1.3781778
21.581141 10.275187 -0.81129873
29.672857 14.127805 0.4103936
13.463444 6.4159646 -1.5544804
17.925865 8.5425186 -1.1391643
24.794954 11.815963 -0.29467073
40.823997 19.472046 1.6153072
15.42517 7.3574271 -1.3787106
21.584633 10.295341 -0.81186545
29.580961 14.122069 0.4089874
13.461441 6.4265461 -1.5548716
17.926294 8.5657701 -1.1399678
24.785419 11.843285 -0.29498917
29.579361 14.133986 1.1705474
15.424096 7.3701377 -1.3791934
21.580841 10.321286 -0.8123771
29.572683 14.143477 0.40878296
13.460052 6.4431992 -1.5556465
17.931736 8.5837517 -1.1408325
24.77894 11.861444 -0.29520032
29.505445 14.136639 1.1678679
15.420781 7.3883991 -1.3797671
21.585878 10.342218 -0.8130039
29.529516 14.148171 0.40809646
29.456959 14.126052 1.9264925
13.456836 6.4532113 -1.5559001
17.933327 8.5999079 -1.1414535
24.766819 11.887537 -0.29548877
29.501911 14.160277 1.1678925
15.42056 7.4015346 -1.3803285
21.582735 10.368516 -0.8135426
29.469166 14.157219 0.40712819
29.427135 14.137028 1.9249604
13.456275 6.4645004 -1.5564615
17.93133 8.622057 -1.1421077
24.75721 11.904197 -0.29566309
29.492447 14.181077 1.1676829
15.418822 7.420577 -1.3810469
21.59012 10.390621 -0.81426007
29.404408 14.151383 0.40614432
29.435942 14.179217 1.9261662
13.450953 6.4792895 -1.5567873
17.93071 8.6371765 -1.1425903
24.746042 11.920104 -0.2958189
