# .PCD v0.7 - Point Cloud Data file format
VERSION 0.7
FIELDS x y z
SIZE 4 4 4
TYPE F F F
COUNT 1 1 1
WIDTH 1612
HEIGHT 1
VIEWPOINT 0 0 0 1 0 0 0
POINTS 1612
DATA ascii
12.014743 8.4754677 -1.7194387
16.191483 11.421833 -1.3855789
20.898979 14.742605 -0.59379017
21.053858 14.86287 0.59833801
13.816523 9.7537079 -1.577853
17.880173 12.622422 -1.0168357
21.037718 14.862482 -0
21.034014 14.859865 1.1964878
12.013387 8.4870768 -1.7200921
16.186941 11.435562 -1.3858731
20.870518 14.755284 -0.59342021
21.026066 14.865255 0.59784299
13.813997 9.7663822 -1.5783428
17.86994 12.643258 -1.017006
21.006483 14.862411 -0
21.008217 14.863638 1.1956104
12.010657 8.4977255 -1.7205503
16.180841 11.456673 -1.3863772
20.845488 14.759426 -0.59300137
20.999077 14.868174 0.59737062
13.808523 9.7842159 -1.5788871
17.862637 12.656814 -1.0170931
20.973473 14.861038 -0
20.97768 14.875021 1.1947583
12.005265 8.5127897 -1.7210538
16.177511 11.471279 -1.3867778
20.820557 14.763607 -0.59258521
20.9634 14.875896 0.59679848
13.806701 9.79741 -1.5794604
17.857582 12.671968 -1.0173088
20.936813 14.868021 -0
20.953133 14.879609 1.1939516
12.002356 8.523325 -1.7214894
16.173208 11.493699 -1.38744
20.788851 14.773865 -0.59212279
20.931522 14.875257 0.59618646
13.807498 9.8124762 -1.5803349
17.84796 12.693262 -1.0175173
20.904179 14.866809 -0
20.926172 14.882451 1.1930071
11.996395 8.5380039 -1.721916
16.170609 11.508851 -1.3879058
20.76326 14.777505 -0.59168756
20.893637 14.881287 0.59555089
13.80241 9.8306303 -1.58093
17.843002 12.708504 -1.0177402
20.872858 14.866488 -0
20.891226 14.890564 1.1919031
11.994317 8.5491467 -1.722474
16.169298 11.524933 -1.3884835
20.732386 14.788264 -0.59124875
20.861273 14.880199 0.59492439
13.801085 9.8442163 -1.581565
17.835751 12.731512 -1.0180866
20.836294 14.873359 -0
20.859291 14.889774 1.1906739
11.991409 8.5597048 -1.7229141
16.160994 11.544554 -1.3888078
20.706835 14.791862 -0.59081447
20.829271 14.879324 0.59430784
13.796179 9.8625317 -1.5821855
17.832129 12.747727 -1.0183874
20.805059 14.873 -0
20.822456 14.896421 1.1894611
11.986036 8.574831 -1.7234313
16.158318 11.559689 -1.389271
20.682941 14.796612 -0.59042728
20.791864 14.88551 0.59368497
13.793907 9.8754663 -1.5827153
17.830046 12.765057 -1.0187773
20.768517 14.879764 -0
20.78969 14.894933 1.1881831
11.982727 8.5851173 -1.723817
16.152746 11.572759 -1.3894863
20.653915 14.808569 -0.59004104
20.760393 14.884912 0.59308296
13.790171 9.8873596 -1.5830781
17.82136 12.787088 -1.0190456
20.736858 14.879002 -0
20.757284 14.893657 1.1869249
11.976377 8.5995617 -1.7241981
16.144131 11.592191 -1.3897887
20.630819 14.813828 -0.58967656
20.72868 14.884096 0.59247369
13.784514 9.9051771 -1.5836188
17.818893 12.804172 -1.0194154
20.70499 14.878043 -0
20.719753 14.899621 1.1856705
11.973144 8.6099138 -1.7245975
16.139452 11.605915 -1.3900831
20.602869 14.826483 -0.58932114
20.691971 14.890603 0.59186983
13.781196 9.917388 -1.5840324
17.813276 12.819002 -1.0196058
20.668192 14.884445 -0
20.687782 14.898553 1.184436
11.969837 8.6202211 -1.7249876
16.129723 11.624564 -1.3902929
20.579365 14.831388 -0.58894491
20.660883 14.890136 0.59127778
13.774682 9.9346132 -1.5844787
17.805696 12.841871 -1.0199411
20.63809 14.884658 -0
20.655729 14.89738 1.1831959
11.963949 8.6350212 -1.7254413
16.123152 11.63694 -1.3904264
20.554535 14.835306 -0.58853054
20.624195 14.896535 0.59067392
13.773071 9.9480753 -1.5850921
17.800142 12.856767 -1.020137
20.602009 14.891457 -0
20.619593 14.904167 1.1820194
11.961754 8.6461449 -1.7259948
16.114897 11.648102 -1.3904154
20.524338 14.846226 -0.58811074
20.593538 14.896281 0.59009367
13.770945 9.9611759 -1.5856472
17.792833 12.879862 -1.0204904
20.57221 14.891795 -0
20.587849 14.903114 1.1807957
11.959801 8.6574507 -1.7265847
16.100924 11.663691 -1.3902628
20.498314 14.84921 -0.58766198
20.561691 14.895122 0.58947891
13.765797 9.9794264 -1.5862567
17.788134 12.895395 -1.0207369
20.542517 14.892168 -0
20.552364 14.910254 1.1796554
11.954591 8.6727724 -1.7271427
16.089024 11.672205 -1.3899386
20.468313 14.849276 -0.5870989
20.525826 14.901939 0.58889776
13.76361 9.9925079 -1.5868083
17.785631 12.912533 -1.0211104
20.505674 14.898242 -0
20.521461 14.909713 1.1784788
11.952332 8.683876 -1.7276918
16.072662 11.686046 -1.3895817
20.429726 14.853961 -0.58643794
20.494381 14.90097 0.58829391
13.761191 10.005431 -1.5873345
17.777147 12.934824 -1.0214005
20.475054 14.897845 -0
20.490728 14.909251 1.1773114
11.946148 8.6985111 -1.7281137
16.05987 11.693892 -1.3891811
20.390875 14.847486 -0.58562011
20.458567 14.907705 0.58771366
13.753159 10.021623 -1.5876175
17.774137 12.951621 -1.0217468
20.442959 14.896333 -0
20.454641 14.91578 1.1761348
11.942142 8.7083578 -1.7284131
16.048143 11.702506 -1.3888732
20.343422 14.845557 -0.58470351
20.429037 14.908033 0.58716416
13.751248 10.034936 -1.5882053
17.764851 12.973356 -1.0219933
20.401512 14.898864 -0
20.423805 14.915144 1.1749601
11.938691 8.7186155 -1.7287942
16.032389 11.716753 -1.3885708
20.301146 14.836436 -0.58378595
20.398603 14.90766 0.58658844
13.743369 10.051259 -1.5885102
17.76193 12.990247 -1.0223467
20.360491 14.890713 -0
20.391655 14.913505 1.1737093
11.932028 8.7329226 -1.7291527
16.022821 11.726931 -1.3884509
20.26343 14.830586 -0.58299893
20.363163 14.914499 0.58601815
13.742561 10.065402 -1.5892286
17.756823 13.005549 -1.0225751
20.311049 14.887224 -0
20.355822 14.920041 1.1725454
11.929746 8.7440491 -1.7297062
16.013781 11.737492 -1.3883773
20.218382 14.830155 -0.58214939
20.327713 14.91035 0.58529735
13.740863 10.078904 -1.5898454
17.74914 13.028501 -1.0229179
20.262863 14.873663 -0
20.324198 14.918686 1.1713235
11.924804 8.7596378 -1.7303188
16.001104 11.753978 -1.3883445
20.194805 14.834557 -0.58176857
20.288029 14.903036 0.58445418
13.738699 10.099462 -1.5908179
17.74485 13.044425 -1.0231951
20.221472 14.865016 -0
20.286028 14.923383 1.1700237
11.922998 8.7711334 -1.7309449
15.992769 11.765054 -1.3883337
20.160358 14.841783 -0.58122367
20.238478 14.899293 0.58347583
13.737721 10.113524 -1.5915219
17.741364 13.060951 -1.0235196
20.183126 14.86941 -0
20.249123 14.918031 1.1684955
11.920464 8.7821016 -1.7314667
15.979436 11.781054 -1.3882464
20.192835 14.88744 0.58245945
13.735604 10.134162 -1.5925052
17.732481 13.083067 -1.023797
20.158846 14.873246 -0
20.208998 14.910248 1.1667806
11.91432 8.7968388 -1.7319113
15.971741 11.792602 -1.3882928
20.146076 14.885556 0.58156008
13.733562 10.14747 -1.5930895
17.72827 13.099084 -1.0240817
20.160461 14.907066 1.1648788
11.911388 8.8075294 -1.7323786
15.963253 11.803563 -1.388271
20.114269 14.883775 0.58094168
13.731728 10.160942 -1.593699
17.717834 13.12008 -1.024272
20.11709 14.896732 1.1629735
11.908106 8.8179674 -1.732796
15.951697 11.820877 -1.3883418
20.089661 14.88728 0.580531
13.724953 10.178189 -1.594149
17.71353 13.136049 -1.0245531
20.077917 14.900304 1.1616102
11.903257 8.8336935 -1.7334358
15.943473 11.832033 -1.3883445
13.721591 10.190552 -1.5945845
17.707581 13.150808 -1.0247397
20.050066 14.901352 1.1606005
11.900576 8.844593 -1.7339439
15.930323 11.848165 -1.3882792
13.719685 10.204004 -1.5951904
17.69981 13.173818 -1.0250878
27.39043 20.386465 -0
20.032238 14.909824 1.1601709
11.895508 8.8601789 -1.7345564
15.919329 11.857258 -1.3880421
13.713857 10.221992 -1.5957564
17.696209 13.190346 -1.0254123
27.37804 20.40696 -0
11.89274 8.8710337 -1.7350554
15.908392 11.866388 -1.3878105
13.713106 10.236333 -1.5965003
17.687481 13.212676 -1.0257078
27.229597 20.340706 -0
11.889652 8.8816557 -1.7355092
15.892399 11.880382 -1.3874998
13.707674 10.254648 -1.5971172
17.683939 13.229275 -1.0260377
27.181141 20.334087 -0
11.882581 8.8957758 -1.7358359
15.884631 11.89187 -1.3875462
13.705865 10.268227 -1.5977412
17.679695 13.245361 -1.0263278
27.189211 20.384567 -0
11.879037 8.9060707 -1.7362261
15.876637 11.903192 -1.3875735
13.702676 10.280781 -1.5982057
17.669186 13.266398 -1.0265236
27.222734 20.439405 -0
11.872341 8.9204865 -1.7366117
15.869147 11.923556 -1.3880094
13.696969 10.298934 -1.5987972
17.666063 13.28335 -1.0268807
27.236153 20.479229 -0
11.868714 8.9307327 -1.7369928
15.863528 11.93667 -1.3882464
13.69397 10.311653 -1.599287
17.661026 13.298872 -1.0271273
27.227795 20.517612 -0
11.866071 8.9417248 -1.7375191
15.853882 11.955434 -1.3884971
13.688349 10.3299 -1.5998931
17.653442 13.322155 -1.0274971
27.234074 20.55217 -0
11.860076 8.9566946 -1.7380137
15.843044 11.964621 -1.3882792
13.686533 10.343534 -1.6005244
17.650581 13.339346 -1.0278723
27.211773 20.56517 -0
11.857224 8.9675465 -1.7385128
15.833475 11.974762 -1.3881729
13.68517 10.357523 -1.6012102
17.644598 13.363876 -1.0283382
11.854393 8.9784222 -1.7390164
15.813815 11.985946 -1.3875489
13.679832 10.376032 -1.6018561
17.642166 13.381427 -1.0287408
11.847982 8.9931068 -1.7394565
15.801377 11.993896 -1.3871919
13.677323 10.389179 -1.6024113
17.6418 13.400561 -1.0292646
11.843894 9.0030432 -1.7397786
15.782544 12.005672 -1.3866415
13.675824 10.403105 -1.6030862
17.63406 13.423826 -1.0296327
11.83733 9.0176277 -1.7402006
15.770067 12.01357 -1.3862818
13.66882 10.420391 -1.6035434
17.632132 13.441812 -1.0300677
11.833808 9.0280075 -1.7406089
15.756038 12.020275 -1.3857859
13.665963 10.433307 -1.6040623
17.625006 13.455846 -1.0302
11.830369 9.0384569 -1.7410309
15.738612 12.033076 -1.3853608
13.659694 10.45118 -1.6046102
17.61639 13.478493 -1.0305209
22.743792 17.401522 -0
11.82518 9.0541191 -1.7416615
15.72504 12.040105 -1.3849058
13.656377 10.463766 -1.6050783
17.60837 13.491856 -1.0306025
22.732252 17.430464 -0
11.821627 9.0644979 -1.74207
15.712364 12.047808 -1.3845297
13.653203 10.47647 -1.6055645
17.598473 13.513543 -1.0308509
22.717628 17.44445 -0
11.816066 9.0798979 -1.7426506
15.696279 12.061596 -1.3842245
13.647035 10.49446 -1.6061306
17.593241 13.529061 -1.0310974
22.699562 17.455782 -0
40.544289 31.200762 2.3768411
11.81323 9.0908422 -1.7431679
15.68526 12.070555 -1.3839957
13.642293 10.505979 -1.6064354
17.59186 13.547554 -1.0315706
22.673441 17.473511 -0
40.567467 31.263716 2.3794789
11.810782 9.1020956 -1.7437441
15.670729 12.085522 -1.3838295
13.635933 10.523848 -1.6069833
17.583502 13.570475 -1.0319132
22.655609 17.484991 -0
40.545166 31.291672 2.3794518
11.805389 9.1176605 -1.7443566
15.660098 12.094768 -1.383636
22.623949 17.485771 0.66385955
13.63206 10.536052 -1.6073934
17.582422 13.589237 -1.0324063
22.635424 17.49464 -0
40.518394 31.338768 2.3798051
11.803441 9.1293173 -1.74501
15.648876 12.103552 -1.3833908
19.190115 14.853216 -0.56340396
22.608307 17.498909 0.66375893
13.628792 10.548733 -1.6078759
17.574875 13.612827 -1.0327997
22.613291 17.515392 -0
40.513535 31.380238 2.380806
11.801113 9.1406918 -1.7456089
15.63416 12.118358 -1.3832109
19.185513 14.871083 -0.56357348
22.594851 17.513731 0.66372263
13.622225 10.56648 -1.6084057
17.570177 13.628824 -1.0330825
22.598465 17.529163 -0
40.43494 31.387163 2.3781173
11.795549 9.1561613 -1.7462033
15.622187 12.126545 -1.3829002
19.174879 14.884282 -0.56356627
22.574894 17.536137 0.66367549
13.618377 10.578731 -1.6088229
17.566174 13.645372 -1.033407
22.579418 17.552292 -0
40.388065 31.395987 2.3766489
11.792861 9.1672754 -1.7467523
15.606681 12.14072 -1.3826523
19.159744 14.904714 -0.56357986
22.562246 17.551582 0.66366369
13.615041 10.591388 -1.6093019
17.556618 13.667452 -1.0336862
19.123978 14.887609 -0
40.300583 31.373144 2.3727894
11.787203 9.1826954 -1.7473376
15.595465 12.149482 -1.3824098
19.148748 14.91763 -0.56356263
22.54487 17.575991 0.66369361
13.607899 10.608725 -1.6097701
17.552795 13.684168 -1.0340234
19.116814 14.903478 -0
40.250633 31.402008 2.3717833
11.784245 9.1936188 -1.7478502
15.584275 12.158257 -1.3821701
19.085312 14.900352 0.56215459
13.605149 10.62186 -1.6103216
17.547758 13.699948 -1.0342898
19.100798 14.923176 -0
40.228237 31.429741 2.3717561
11.781891 9.2050209 -1.7484536
15.568987 12.172579 -1.3819438
19.071953 14.911365 0.56206751
13.59846 10.639577 -1.6108477
17.538628 13.722404 -1.034598
19.093542 14.938987 -0
19.059908 14.912671 1.124338
11.775422 9.219841 -1.7489256
15.558705 12.182052 -1.3817859
19.051315 14.927402 0.56191975
13.596355 10.653241 -1.6114792
17.532267 13.737172 -1.0347884
19.020638 14.914083 1.1229421
11.771578 9.2300949 -1.7493112
15.54845 12.19154 -1.3816305
19.040367 14.940289 0.56190431
13.592862 10.665828 -1.6119472
17.52223 13.758946 -1.0350459
19.005434 14.923599 1.1226593
11.764071 9.2441187 -1.7496333
15.534479 12.206877 -1.3815242
19.027538 14.951696 0.56183362
13.586364 10.683735 -1.6125023
17.516945 13.774576 -1.0353014
18.980688 14.936326 1.1221209
11.758713 9.2531929 -1.7497966
15.524667 12.216706 -1.3814098
13.582721 10.696225 -1.6129559
17.513271 13.791486 -1.0356531
18.964525 14.945057 1.1217818
11.753621 9.2624807 -1.7500008
15.51058 12.231944 -1.3812953
13.579587 10.709126 -1.6134713
17.506079 13.815547 -1.0360827
18.941008 14.947971 1.1210078
11.745955 9.2763948 -1.7503048
15.500294 12.241393 -1.38114
13.570928 10.725366 -1.613776
17.502768 13.832773 -1.036458
18.913744 14.958624 1.1203207
11.741911 9.2865181 -1.7506678
15.489543 12.25047 -1.3809439
13.566608 10.737348 -1.6141534
17.495613 13.85691 -1.0368931
18.889715 14.961068 1.1195158
11.738193 9.2969055 -1.7510806
15.474355 12.264821 -1.3807341
34.492321 27.338274 1.0218407
13.558283 10.753869 -1.6145017
17.491987 13.873921 -1.0372521
18.859276 14.969125 1.1186402
11.732553 9.3124495 -1.7516931
15.463011 12.273417 -1.380486
34.438904 27.354704 1.0211064
13.551412 10.76384 -1.6145779
17.487278 13.890085 -1.0375476
18.832417 14.969249 1.1176667
11.729663 9.3235102 -1.7522331
15.44768 12.287638 -1.3802654
34.429886 27.386763 1.0214055
13.547181 10.775912 -1.6149698
17.478218 13.912765 -1.0378739
18.805964 14.969659 1.1167167
11.723564 9.3387136 -1.7527821
15.437207 12.296914 -1.3800964
34.396553 27.399479 1.0209839
13.539265 10.792785 -1.6153727
17.473627 13.929049 -1.0381784
18.772615 14.975255 1.1156671
11.720863 9.3499441 -1.7533537
15.426426 12.305938 -1.3799002
34.387985 27.451565 1.0215824
13.535496 10.805243 -1.6158226
17.467619 13.944215 -1.0383996
18.745937 14.9754 1.1147027
11.719426 9.3621931 -1.7541161
15.412161 12.320992 -1.3797776
18.655119 14.913519 -0.55450678
34.325344 27.440815 1.0202903
13.528638 10.822983 -1.6163559
17.458675 13.967033 -1.0387368
18.718477 14.974882 1.1136911
11.71425 9.378171 -1.7548102
15.402247 12.330701 -1.3796605
18.630709 14.915337 -0.55409062
34.324478 27.499088 1.02112
13.526693 10.836924 -1.6170273
17.452208 13.981853 -1.0389326
18.687075 14.981881 1.1127557
11.713329 9.3908606 -1.7556541
15.392571 12.340597 -1.3795651
18.610937 14.931515 -0.5539673
34.316235 27.531841 1.0214463
13.522704 10.849236 -1.6174554
17.442699 14.004251 -1.0392389
18.585882 14.92208 -0
18.66012 14.981683 1.1117731
11.70972 9.4081268 -1.7565887
15.378242 12.355587 -1.3794397
18.593325 14.938731 -0.55375332
34.33765 27.588446 1.0226567
13.51658 10.867608 -1.6180831
17.435625 14.0186 -1.0394003
18.564318 14.926093 -0
18.628096 14.98808 1.1107996
11.707501 9.4198017 -1.7572421
15.369674 12.366368 -1.3794452
18.575785 14.956676 -0.55369711
18.574446 14.955598 0.55365723
13.515472 10.882261 -1.6188596
17.432156 14.035859 -1.0397774
18.545971 14.943344 -0
18.599731 14.986661 1.1097318
11.705363 9.4315519 -1.7579091
15.355562 12.381528 -1.3793416
18.563301 14.967998 -0.55363637
18.530256 14.941353 0.55265081
13.513231 10.896015 -1.6195019
17.421091 14.057047 -1.039995
18.530973 14.952609 -0
18.56916 14.983421 1.1085317
11.698861 9.4465342 -1.7584172
15.346703 12.392074 -1.3793225
18.557617 14.984806 -0.55377871
18.508615 14.955914 0.55247223
13.508952 10.91593 -1.6203583
17.417738 14.07443 -1.0403811
18.520014 14.965125 -0
18.533859 14.987009 1.1073606
11.696698 9.4582853 -1.7590842
15.337563 12.402392 -1.3792789
18.553997 15.014009 -0.55413955
18.490065 14.962273 0.55223012
13.507708 10.93052 -1.6211239
17.408054 14.096763 -1.0406837
18.503817 14.984093 -0
18.501497 14.982215 1.1060517
11.692354 9.4682798 -1.7594244
15.324839 12.418668 -1.3793035
18.551916 15.033768 -0.55439073
18.477066 14.973112 0.55215394
13.501601 10.948996 -1.6217662
17.40624 14.115425 -1.0411642
18.49514 14.998459 -0
18.467316 14.986583 1.1049459
11.687192 9.4843817 -1.7601414
15.315409 12.42875 -1.3792354
18.555668 15.058282 -0.55481684
18.45698 14.988884 0.55202252
13.499177 10.96266 -1.622394
17.400259 14.130722 -1.0413963
18.481728 15.019691 -0
18.440466 14.986158 1.1039652
11.683729 9.4951077 -1.7606177
15.302929 12.445224 -1.3792844
18.449087 15.00386 0.55209959
13.495806 10.975567 -1.6229092
17.393805 14.155734 -1.0418966
18.475267 15.03587 -0
18.421919 14.992452 1.1034811
11.677661 9.510499 -1.7612031
15.293995 12.455708 -1.3792626
18.441574 15.019153 0.55218846
13.488103 10.992789 -1.6233664
17.389452 14.172385 -1.0422283
22.502983 18.339907 -0
18.403032 15.009146 1.1032907
11.673724 9.5208559 -1.7616113
15.284571 12.465791 -1.3791972
18.429224 15.041223 0.55228996
13.484403 11.005449 -1.6238453
17.386356 14.190073 -1.0426363
22.492054 18.370232 -0
18.399803 15.027914 1.1037258
11.671402 9.5325375 -1.7622647
15.272052 12.482233 -1.3792462
29.932581 24.464655 0.89753604
13.477537 11.02338 -1.6244078
17.377285 14.213016 -1.0429844
22.495037 18.398863 -0
18.399849 15.049377 1.1043586
11.664835 9.5475559 -1.762782
15.261796 12.491633 -1.3791072
29.912836 24.500811 0.89771283
13.472215 11.034734 -1.6246945
17.374001 14.230583 -1.0433831
22.487843 18.432316 -0
18.400436 15.082044 1.1053411
11.662578 9.5593128 -1.763449
15.252951 12.502187 -1.3790964
29.953245 24.568869 0.89944005
13.469259 11.048034 -1.6252677
17.36334 14.25226 -1.0436387
22.494656 18.464169 -0
18.406912 15.10885 1.1063635
11.656339 9.5746231 -1.7640206
15.238706 12.517213 -1.3789928
29.9044 24.563747 0.89848804
13.459395 11.06354 -1.6254746
17.359596 14.269483 -1.0440122
22.500771 18.495497 -0
18.407625 15.141726 1.1073588
11.653996 9.5863323 -1.7646785
15.229482 12.527452 -1.3789493
18.622051 15.318108 -0.55982715
29.913033 24.623343 0.89952165
13.455121 11.075777 -1.6258919
17.354269 14.285418 -1.0442914
22.497459 18.532286 -0
18.413885 15.168441 1.1083722
11.649966 9.5966616 -1.7650822
15.214671 12.542006 -1.3787967
18.632578 15.359509 -0.5606268
13.448346 11.085959 -1.626008
17.344088 14.307531 -1.0445796
22.497442 18.558651 -0
18.41807 15.193484 1.1092622
11.643082 9.611474 -1.7655632
15.206242 12.552897 -1.3788266
18.62715 15.376889 -0.56078637
29.926914 24.722521 0.90123528
13.438438 11.101448 -1.6262149
17.339508 14.324109 -1.0449059
22.494902 18.582962 -0
18.417458 15.225418 1.110185
11.638581 9.6214294 -1.7658989
15.196394 12.562616 -1.3787285
18.616364 15.400793 -0.56094688
29.932665 24.762451 0.90192884
13.429906 11.110183 -1.6261204
17.328287 14.345394 -1.0451343
22.484787 18.614254 -0
18.421432 15.250365 1.1110661
11.635179 9.6322985 -1.7664026
15.183499 12.578747 -1.3787531
18.611952 15.419043 -0.56113815
29.903643 24.773626 0.90157527
13.417815 11.123868 -1.6260661
17.323315 14.361672 -1.0454389
18.565001 15.391077 -0
18.421577 15.283028 1.1120396
11.627266 9.646286 -1.7667338
15.174714 12.589344 -1.3787531
18.61059 15.439837 -0.56142199
18.513767 15.370424 0.55866295
13.409028 11.132388 -1.6259427
17.316675 14.376579 -1.0456438
18.551699 15.412856 -0
18.42522 15.307778 1.1129043
11.625154 9.6582441 -1.7674371
15.162452 12.606 -1.3788375
18.609966 15.47225 -0.56189162
18.52084 15.39815 0.55920064
13.399938 11.140653 -1.6257831
17.306051 14.398399 -1.045912
18.546999 15.430851 -0
18.430098 15.333591 1.1138452
11.617717 9.6726475 -1.7678454
15.153018 12.616058 -1.3787802
18.613417 15.497108 -0.56232232
18.511106 15.411926 0.55923146
13.388443 11.154828 -1.6258048
17.299112 14.413075 -1.0461006
18.543545 15.449897 -0
18.427637 15.364226 1.1146683
11.615342 9.6844072 -1.7685124
15.145164 12.627433 -1.3788675
18.616158 15.532427 -0.56289619
18.500294 15.435756 0.55939281
13.380831 11.164322 -1.6258266
17.29402 14.429298 -1.0464015
18.541687 15.481274 -0
18.430084 15.388091 1.1154659
11.612271 9.6955976 -1.7690749
15.131484 12.642911 -1.3788266
18.622063 15.559417 -0.56340307
18.49287 15.451472 0.55949438
13.371341 11.180175 -1.6260951
17.28294 14.45078 -1.0466462
18.547506 15.508121 -0
18.430832 15.410565 1.1161621
11.605652 9.7107153 -1.7696148
15.122654 12.653472 -1.3788266
18.628027 15.586498 -0.56391257
18.488476 15.480707 0.55985159
13.364964 11.190705 -1.6262692
17.2794 14.468328 -1.0470433
18.549492 15.542814 -0
18.427277 15.440409 1.1169252
11.603064 9.7223291 -1.7702546
15.112741 12.663125 -1.3787285
18.625729 15.617764 -0.56433785
18.489334 15.503397 0.56020522
13.359651 11.202132 -1.626574
17.270607 14.491757 -1.0474294
18.563293 15.57645 -0
18.429674 15.464331 1.1177247
11.596382 9.7374182 -1.77079
15.098845 12.678418 -1.3786713
18.630283 15.643747 -0.56480658
18.495823 15.530841 0.56073016
13.348806 11.216866 -1.6266829
17.266041 14.50848 -1.0477666
18.569998 15.604182 -0
18.428432 15.496203 1.1186329
11.593233 9.7485828 -1.771348
15.088559 12.687753 -1.3785405
18.636902 15.671503 -0.56533879
18.497715 15.565489 0.56128144
13.342669 11.227611 -1.6268897
17.262178 14.525806 -1.0481473
18.576057 15.64249 -0
18.434324 15.52314 1.1196481
11.590343 9.7599735 -1.7719469
15.074638 12.703019 -1.3784833
18.637444 15.705304 -0.56585377
18.50527 15.593925 0.56184083
13.334558 11.236697 -1.626857
17.251581 14.547774 -1.0484283
18.579466 15.667542 -0
18.441261 15.550998 1.1207286
11.584 9.775383 -1.7725413
15.06541 12.713238 -1.3784506
18.64847 15.736874 -0.566522
18.506504 15.628136 0.56237489
13.322874 11.250731 -1.626868
17.246191 14.563843 -1.0487183
18.584103 15.693666 -0
18.441954 15.584657 1.1217619
11.580729 9.7864733 -1.7730858
15.057631 12.724684 -1.3785514
18.649544 15.771247 -0.567056
18.511423 15.654442 0.56285632
13.314778 11.259828 -1.6268389
17.235308 14.5856 -1.0489849
18.573771 15.718291 -0
18.446915 15.610938 1.1227263
11.578424 9.7983904 -1.77378
15.044655 12.740746 -1.3785841
18.658556 15.801222 -0.56766534
18.515121 15.679753 0.5633015
13.303574 11.274268 -1.6269115
17.230896 14.602524 -1.0493366
18.577515 15.743731 -0
18.44511 15.642589 1.1236129
11.571975 9.8137465 -1.7743653
15.036945 12.752255 -1.3786931
18.663662 15.827934 -0.56815672
18.512686 15.71101 0.56372762
13.29653 11.284257 -1.6270131
17.224804 14.618033 -1.0495868
18.566139 15.767526 -0
18.447659 15.666904 1.1244341
11.569586 9.8256149 -1.7750504
15.028425 12.763078 -1.3787285
18.664248 15.862062 -0.56867987
18.516354 15.736373 0.5641737
13.291226 11.295729 -1.6273289
17.214479 14.64031 -1.0498912
18.572325 15.795111 -0
18.449736 15.690852 1.125228
11.563633 9.8414221 -1.7757174
15.015051 12.778809 -1.3787285
18.665541 15.885618 -0.56905705
18.519459 15.761293 0.56460351
13.2817 11.311608 -1.6276119
17.207731 14.655285 -1.0501034
18.575331 15.820027 -0
18.44743 15.722212 1.126091
11.560569 9.8527393 -1.7763026
15.005296 12.78858 -1.3786522
18.665237 15.919093 -0.5695557
18.51881 15.79421 0.56508762
13.277884 11.324361 -1.6281126
17.201324 14.670561 -1.0503372
18.579967 15.857576 -0
18.451675 15.748081 1.127021
11.558173 9.8646355 -1.7769922
14.992785 12.805046 -1.378734
18.664572 15.941048 -0.56987488
18.523222 15.820324 0.56555909
13.26856 11.340432 -1.6284246
17.18791 14.690239 -1.0504569
18.58564 15.884858 -0
18.455566 15.773686 1.127931
11.551641 9.8799877 -1.7775775
14.983012 12.8148 -1.3786577
18.669287 15.967628 -0.57035905
18.523081 15.853781 0.56606144
13.265959 11.354244 -1.6290778
17.182037 14.705991 -1.0507252
18.590149 15.92243 -0
18.455753 15.80732 1.1289535
11.548895 9.8916082 -1.7782173
14.975186 12.826221 -1.3787612
18.665037 15.997869 -0.57074076
18.526508 15.879135 0.56650478
13.261868 11.366794 -1.6295495
17.169176 14.72616 -1.0508811
18.595604 15.94962 -0
18.459522 15.832903 1.1298599
11.546168 9.9032555 -1.7788615
14.961687 12.841845 -1.3787558
18.671289 16.025852 -0.57127386
18.531628 15.905978 0.56700075
13.256477 11.386276 -1.6303514
17.163715 14.742287 -1.0511765
18.601028 15.976826 -0
18.458586 15.86568 1.130819
11.540528 9.9194126 -1.779592
14.953605 12.853049 -1.3788375
18.676088 16.052629 -0.57176346
18.52932 15.937727 0.56744045
13.255159 11.401235 -1.6311679
17.158182 14.758363 -1.0514685
18.600452 16.01021 -0
18.462145 15.891163 1.1317163
11.538041 9.9312887 -1.7802771
14.940492 12.869006 -1.3788702
18.676874 16.087343 -0.57230294
18.533989 15.964269 0.56792462
13.253562 11.415968 -1.6319517
17.146353 14.779456 -1.0516914
18.606047 16.037653 -0
18.466917 15.917728 1.1326898
11.532482 9.947547 -1.7810258
14.933097 12.880808 -1.3790174
18.679123 16.112009 -0.57271636
18.532337 15.996682 0.56838703
13.247783 11.435178 -1.6327137
17.140491 14.795273 -1.0519652
18.609749 16.063501 -0
18.464943 15.949761 1.1335926
11.529998 9.9594507 -1.7817154
14.926283 12.893115 -1.3792191
18.679493 16.146475 -0.57324588
18.537415 16.023663 0.56888568
13.246328 11.45007 -1.6335192
17.128145 14.815946 -1.0521592
18.609934 16.0977 -0
18.470684 15.97725 1.1346296
11.527003 9.9709244 -1.7823279
14.914806 12.910499 -1.379407
18.680292 16.169966 -0.57361668
18.541193 16.049559 0.56934536
13.239447 11.468367 -1.6341506
17.120718 14.830429 -1.0523386
18.614222 16.124142 -0
18.469158 16.009771 1.135565
11.521421 9.9872084 -1.7830811
14.908704 12.923434 -1.3796768
18.686085 16.197813 -0.57414168
18.539776 16.082323 0.56981868
13.237459 11.482831 -1.6348944
17.115076 14.846469 -1.0526286
18.614494 16.158529 -0
18.474625 16.037113 1.1365893
11.519955 10.000031 -1.7839341
14.901326 12.93527 -1.3798294
18.686094 16.232122 -0.57466394
18.543314 16.108093 0.57027292
13.23543 11.497273 -1.6356347
17.106117 14.870118 -1.0530348
18.614883 16.181669 -0
18.479563 16.064037 1.1375827
11.514248 10.01624 -1.7846736
14.890418 12.95317 -1.3800746
18.689489 16.25798 -0.57511723
18.547237 16.134235 0.57073981
13.228897 11.515928 -1.6363168
17.102913 14.888309 -1.0534772
18.621525 16.210279 -0
18.479059 16.097605 1.1385888
11.513016 10.029297 -1.7855674
14.882341 12.964407 -1.3801645
18.688526 16.291553 -0.57561231
18.545904 16.167223 0.57121944
13.225429 11.529147 -1.6368829
17.100456 14.907167 -1.0539665
18.614754 16.238682 -0
18.48399 16.124609 1.1395859
11.509607 10.040469 -1.7861255
14.870871 12.98183 -1.3803607
18.689768 16.315615 -0.57600123
18.54994 16.193548 0.57169181
13.219148 11.548058 -1.6376014
17.092154 14.931459 -1.054418
18.621063 16.267094 -0
18.488068 16.150909 1.1405323
11.502591 10.05558 -1.78667
14.863183 12.993413 -1.3804888
18.693016 16.341457 -0.57645279
18.549931 16.2278 0.57221496
13.215649 11.561278 -1.6381674
17.086042 14.947165 -1.0546845
18.617508 16.298395 -0
18.486647 16.183832 1.1414894
11.498633 10.066292 -1.7871463
14.856043 13.005481 -1.3806686
18.687437 16.371138 -0.57680911
18.553989 16.25423 0.57269007
13.210763 11.573296 -1.6385629
17.07616 14.970117 -1.0550416
18.625101 16.328024 -0
18.488371 16.208157 1.1422943
11.494579 10.076925 -1.7876091
14.843763 13.022213 -1.3807939
18.692266 16.398447 -0.5773114
18.558666 16.281242 0.57318515
13.203692 11.591562 -1.6391907
17.067757 14.983836 -1.0551685
18.631222 16.356407 -0
18.48666 16.240925 1.1432388
11.487781 10.09226 -1.7881944
14.836395 13.03409 -1.3809547
18.690672 16.420155 -0.57761604
18.557619 16.314747 0.57368016
13.198664 11.603474 -1.6395717
17.062538 15.00036 -1.055493
18.631153 16.390924 -0
18.48815 16.265118 1.1440328
11.484257 10.103378 -1.7887435
14.824142 13.050856 -1.3810855
18.686216 16.450943 -0.57801044
18.561966 16.341555 0.57416707
13.194093 11.615795 -1.6400107
17.05089 15.021805 -1.055745
18.634829 16.417253 -0
18.492599 16.291948 1.1450118
11.478297 10.119479 -1.7894648
14.816722 13.062696 -1.3812436
18.677628 16.466541 -0.5781002
18.560743 16.375013 0.57465935
13.185567 11.632822 -1.6404643
17.046427 15.039022 -1.0561185
18.633791 16.439459 -0
18.490477 16.324503 1.1459382
11.474604 10.130468 -1.7899911
14.809791 13.074971 -1.3814479
18.666666 16.49165 -0.57829511
18.564466 16.40136 0.57512903
13.183505 11.647381 -1.641219
17.035843 15.06144 -1.0564393
18.628126 16.469183 -0
18.49609 16.352449 1.1469933
11.472005 10.142434 -1.7906898
14.797929 13.092099 -1.3816196
18.56711 16.426788 0.57556605
13.174358 11.663887 -1.6416
17.033241 15.080339 -1.0569305
18.618584 16.483917 -0
18.500357 16.379248 1.1479667
11.465792 10.158353 -1.7913796
14.791731 13.105037 -1.3818948
18.562464 16.457363 0.57595593
13.172994 11.679093 -1.6424456
17.0296 15.098336 -1.0573584
18.609024 16.51025 -0
18.499979 16.413502 1.1490091
11.464443 10.171453 -1.7922778
14.78459 13.117145 -1.3820828
18.564169 16.482038 0.57636571
13.167745 11.690869 -1.6428084
17.022209 15.123652 -1.0578823
22.544003 20.029575 -0
18.502867 16.439165 1.149901
11.458656 10.187784 -1.7930402
14.773029 13.134562 -1.3822871
18.565645 16.50654 0.57676917
13.160173 11.708815 -1.6433926
17.021091 15.143935 -1.0584698
22.53833 20.05271 -0
18.49966 16.471012 1.150773
11.458409 10.201896 -1.7941154
14.766039 13.146815 -1.3824916
18.564619 16.54047 0.5772751
13.155219 11.720871 -1.6437954
17.020916 15.165081 -1.059117
22.547934 20.103596 -0
18.501875 16.496155 1.1516268
11.456844 10.21485 -1.7949865
14.754095 13.163906 -1.3826632
18.570463 16.568949 0.57781643
13.147464 11.738682 -1.6443614
17.014107 15.191006 -1.0596825
22.554436 20.137674 -0
18.504295 16.521517 1.1524953
11.45077 10.230978 -1.7957125
14.749464 13.178279 -1.3830911
18.573103 16.606268 0.5784393
13.144398 11.752446 -1.6450037
17.014814 15.212997 -1.0603877
22.534645 20.162455 -0
18.502455 16.554726 1.1534597
11.448974 10.243756 -1.7965518
14.744238 13.192133 -1.3834643
18.579369 16.635225 0.578996
13.140883 11.765822 -1.6455915
17.010237 15.240988 -1.0610965
22.553728 20.207897 -0
18.507021 16.58209 1.1544658
11.446356 10.255812 -1.7972642
14.738075 13.214433 -1.3841836
18.586853 16.665319 0.57959169
13.133361 11.783889 -1.6461939
17.011936 15.263935 -1.061867
22.533073 20.217768 -0
18.507822 16.617783 1.1556007
11.438901 10.270747 -1.7977815
14.735543 13.230733 -1.3848132
18.584816 16.698633 0.58007312
13.129962 11.797396 -1.6467998
17.011927 15.285378 -1.0625323
22.540646 20.26721 -0
18.512175 16.645048 1.1565977
11.435536 10.282155 -1.7983804
14.72814 13.251969 -1.3854208
18.589411 16.726233 0.58058083
13.126609 11.810956 -1.647413
17.011948 15.317624 -1.0635349
22.541296 20.296272 -0
18.518442 16.674078 1.1577163
11.428654 10.29763 -1.7989929
14.724936 13.267699 -1.3859903
18.586706 16.759052 0.58104414
13.118653 11.828681 -1.6479683
17.013798 15.340811 -1.0643198
22.542353 20.325737 -0
18.516441 16.70742 1.1586844
11.422758 10.306776 -1.799197
14.721079 13.282858 -1.3864999
18.592102 16.787466 0.58157909
13.116974 11.84378 -1.6487956
17.012953 15.372379 -1.0652734
22.539314 20.365831 -0
18.522318 16.736197 1.1597829
11.419417 10.318233 -1.7998049
14.710485 13.301271 -1.3868132
18.596279 16.814821 0.58207685
13.109553 11.862023 -1.6494234
17.018217 15.398731 -1.0662758
22.567669 20.420088 -0
18.527584 16.764463 1.1608453
11.410935 10.332296 -1.8001724
14.707002 13.316795 -1.3873609
18.596228 16.850203 0.58262724
13.106889 11.876266 -1.6501309
17.024117 15.4257 -1.0673201
22.549746 20.446857 -0
18.52849 16.800606 1.1620036
11.406766 10.343022 -1.8006535
14.703071 13.331928 -1.3878677
18.601261 16.878428 0.58315396
13.104154 11.890457 -1.6508312
17.021416 15.455743 -1.0681648
22.542406 20.468899 -0
18.534319 16.829485 1.1631058
11.398743 10.357519 -1.8010981
14.695849 13.35345 -1.3885053
18.606209 16.906616 0.58367896
13.095839 11.907941 -1.6513537
17.025866 15.481483 -1.0691221
22.538979 20.494513 -0
18.532877 16.863619 1.1641229
11.395297 10.368921 -1.801697
14.693355 13.369922 -1.3891511
18.603855 16.940079 0.58416128
13.091634 11.920825 -1.6518726
17.026939 15.504189 -1.0698689
22.554317 20.551649 -0
18.538 16.891953 1.1651852
11.390034 10.378676 -1.8020101
14.686314 13.391655 -1.3898106
18.608126 16.967745 0.58466721
13.088079 11.934312 -1.652475
17.026981 15.525984 -1.0705523
22.536068 20.563835 -0
18.540096 16.917568 1.166059
11.386082 10.389633 -1.8025318
14.680759 13.405374 -1.3901702
18.611561 16.994688 0.58514774
13.083335 11.946725 -1.6529285
17.020422 15.552676 -1.0711633
22.555878 20.610788 -0
18.544298 16.945143 1.1670669
11.377142 10.403332 -1.8028404
14.677523 13.421221 -1.3907506
18.615772 17.022381 0.58565366
13.075581 11.964777 -1.6535308
17.021477 15.57546 -1.0719138
22.569582 20.652241 -0
18.541449 16.978203 1.1680061
11.373081 10.414207 -1.8033484
14.670046 13.433201 -1.3909304
18.613483 17.056114 0.58614326
13.073647 11.979789 -1.6543437
17.021618 15.597437 -1.0726081
22.561331 20.688141 -0
18.547365 17.007441 1.1691264
11.369411 10.425447 -1.8039201
14.662344 13.454405 -1.3915354
18.618607 17.084734 0.58668005
13.06585 11.99784 -1.654946
17.018667 15.627552 -1.0734529
22.574905 20.72962 -0
18.550663 17.034321 1.1700835
11.362687 10.441207 -1.8045871
14.655903 13.467353 -1.391816
18.617407 17.119581 0.58720678
13.064772 12.013672 -1.6558713
17.021542 15.652107 -1.0743232
22.570461 20.769144 -0
18.551937 17.071335 1.1712909
11.360705 10.454023 -1.805431
14.652519 13.483123 -1.3923882
18.622946 17.148684 0.58775896
13.062447 12.028375 -1.6566405
17.019775 15.683409 -1.0752476
22.56328 20.791647 -0
18.555252 17.098322 1.1722535
11.355455 10.471175 -1.8063384
14.643634 13.503294 -1.3928869
18.627707 17.177114 0.58828753
13.055532 12.047297 -1.6573627
17.022127 15.707565 -1.0760889
22.564262 20.821699 -0
18.55448 17.133574 1.1733376
11.353216 10.483786 -1.8071461
14.638756 13.517717 -1.3933202
18.627605 17.21315 0.5888533
13.05266 12.061529 -1.6580666
17.024513 15.731786 -1.0769336
22.556643 20.858444 -0
18.558069 17.16091 1.174322
11.352104 10.497451 -1.8081352
14.629568 13.537644 -1.3937943
18.631807 17.241163 0.5893665
13.051173 12.077057 -1.6589483
17.020397 15.761059 -1.0777168
22.574318 20.904045 -0
18.561975 17.188576 1.1753281
11.346313 10.514159 -1.8089654
14.627059 13.554291 -1.3944564
18.630322 17.276039 0.58989143
13.042568 12.094473 -1.6594636
17.021292 15.783975 -1.0784709
22.57132 20.930557 -0
18.563301 17.225946 1.1765536
11.344886 10.527567 -1.8099092
14.624505 13.570913 -1.3951159
18.803377 17.460945 -0.59575671
18.635712 17.305252 0.59044451
13.041817 12.110722 -1.6604433
17.01696 15.813132 -1.079245
22.57128 20.974524 -0
18.571022 17.257256 1.1778064
11.342479 10.54008 -1.8106986
14.616735 13.592217 -1.3957317
18.794641 17.477287 -0.59586644
18.639727 17.333229 0.59095496
13.035021 12.129857 -1.6611944
17.017828 15.836093 -1.080001
22.579794 21.011831 -0
18.576841 17.29895 1.1793237
11.336802 10.55695 -1.8115562
14.615541 13.610147 -1.3965245
18.788694 17.496231 -0.59606498
18.63888 17.368874 0.59150445
13.034061 12.145954 -1.6621524
17.021383 15.86159 -1.0809292
18.764881 17.498531 -0
18.589474 17.334961 1.1808937
11.33377 10.56891 -1.8122504
14.603901 13.627891 -1.3967752
18.779556 17.524477 -0.59635693
18.644079 17.398054 0.59205478
13.033512 12.162454 -1.6631647
17.017427 15.891231 -1.0817341
18.741182 17.50091 -0
18.601009 17.370014 1.1823964
11.326579 10.584402 -1.8128719
14.596746 13.64029 -1.3970015
18.777788 17.547369 -0.5966897
18.648678 17.426718 0.59258699
13.029462 12.184225 -1.6642752
17.022659 15.918379 -1.0827729
18.731441 17.516312 -0
18.60113 17.406626 1.1835622
11.322445 10.595355 -1.8133937
14.585542 13.648907 -1.3968407
18.780325 17.586617 -0.59735519
18.64584 17.460678 0.59307748
13.028163 12.20007 -1.6651968
17.025669 15.943488 -1.083672
18.715256 17.537947 -0
18.607138 17.43663 1.1847187
11.319094 10.607051 -1.8140426
14.569138 13.662201 -1.396639
18.788782 17.619169 -0.59801525
18.648315 17.487448 0.59354442
13.023208 12.221052 -1.6661983
17.024982 15.976341 -1.0846927
18.715311 17.562555 -0
18.605089 17.459122 1.1853641
11.310949 10.621687 -1.8145189
14.555222 13.668261 -1.3962194
18.79612 17.650728 -0.59864086
18.644564 17.520658 0.59400868
13.020285 12.235415 -1.6669167
17.02844 16.001959 -1.0856245
18.706415 17.591082 -0
18.596434 17.487658 1.1859787
11.30763 10.633435 -1.8151768
14.544767 13.677565 -1.3961322
18.79978 17.69125 -0.59934711
18.64757 17.548016 0.59449464
13.016328 12.24882 -1.6675045
17.026901 16.034121 -1.0865961
18.715286 17.624062 -0
18.591236 17.507244 1.1864264
11.300131 10.648704 -1.815762
14.52933 13.691746 -1.3960259
18.806267 17.722128 -0.59994829
18.652395 17.577126 0.59503955
13.008785 12.267434 -1.6681831
17.028818 16.058371 -1.0874337
18.719093 17.652319 -0
18.581038 17.534389 1.1869467
11.296814 10.660478 -1.8164245
14.522829 13.704775 -1.3963202
18.813061 17.753344 -0.60056025
18.656721 17.618126 0.59576577
13.003668 12.279771 -1.6686258
17.031506 16.083384 -1.088322
18.716211 17.686668 -0
18.576279 17.554432 1.1874254
11.293542 10.672305 -1.817096
14.511244 13.722599 -1.3965873
18.808363 17.786182 -0.60100454
18.659313 17.645233 0.59624177
13.000009 12.293496 -1.6692572
17.026472 16.112394 -1.0890779
18.721394 17.716322 -0
18.570112 17.573162 1.1878151
11.286755 10.688288 -1.8178037
14.507177 13.737951 -1.3971186
18.821178 17.823208 -0.60181147
18.660412 17.683325 0.59686828
12.992041 12.311757 -1.6698886
17.026661 16.13512 -1.0898104
18.558664 17.599205 1.188261
11.283822 10.700462 -1.8185343
14.502786 13.75301 -1.39762
12.98821 12.325349 -1.6705018
17.02396 16.16643 -1.0907204
18.749758 17.805296 -0
11.280175 10.711971 -1.8191513
14.494053 13.773584 -1.3981677
18.849463 17.912495 -0.60371459
12.980087 12.3435 -1.6711186
17.02282 16.187963 -1.0913712
18.745729 17.826378 -0
11.272746 10.727388 -1.8197639
14.489882 13.788884 -1.3986936
18.842299 17.930738 -0.60388595
12.977324 12.358138 -1.6718735
17.026379 16.213999 -1.0923247
18.744726 17.862841 -0
11.269102 10.738923 -1.8203855
14.486373 13.804831 -1.3992848
18.840298 17.966469 -0.60442448
12.972128 12.370469 -1.6723161
17.021669 16.243538 -1.0931134
11.262396 10.755058 -1.8211205
14.477742 13.825564 -1.3998489
18.840376 17.991673 -0.60482979
18.698202 17.855904 0.60026562
12.964481 12.389126 -1.6730019
17.024176 16.268654 -1.0940034
18.744562 17.912691 -0
11.259119 10.766968 -1.8218056
14.4751 13.842374 -1.4005275
18.834164 18.023489 -0.60523599
18.681383 17.877283 0.60032636
12.960297 12.402449 -1.6735789
17.025698 16.292864 -1.0948319
18.752117 17.957518 -0
11.256474 10.779494 -1.822595
14.466758 13.863429 -1.4011241
18.83762 18.052008 -0.60575187
12.952271 12.420779 -1.6742212
17.024315 16.325727 -1.0958418
18.759226 17.989449 -0
11.249603 10.795521 -1.8233119
14.464385 13.880541 -1.4018326
18.84516 18.084488 -0.60640013
12.949852 12.435826 -1.6750302
17.026169 16.35034 -1.0966955
18.747841 18.016256 -0
11.24696 10.808077 -1.8241059
14.461463 13.897142 -1.4024893
18.840145 18.117611 -0.60684896
12.947054 12.450525 -1.6757923
17.022055 16.380688 -1.0975349
18.745617 18.039309 -0
11.239743 10.823805 -1.8247728
14.4542 13.919307 -1.4031978
18.842512 18.145226 -0.60733312
12.940142 12.469987 -1.676587
17.024748 16.406187 -1.0984468
18.737801 18.056997 -0
11.237714 10.836981 -1.8256712
14.450958 13.935642 -1.4038272
18.838078 18.166317 -0.60759878
12.937562 12.484932 -1.6773816
17.024691 16.42907 -1.0991828
18.7365 18.093624 -0
11.234332 10.848866 -1.8263518
14.443614 13.957781 -1.404533
18.833477 18.199984 -0.60806477
12.935136 12.500043 -1.678198
17.019817 16.458824 -1.0999805
18.733719 18.116232 -0
11.228207 10.865698 -1.8272047
14.440475 13.974257 -1.405176
18.835079 18.226978 -0.60852718
12.92732 12.518695 -1.6788838
17.021275 16.483242 -1.100818
18.751402 18.158682 -0
11.224463 10.87726 -1.8278309
14.437515 13.990924 -1.4058381
18.834372 18.264526 -0.60912198
12.924943 12.533891 -1.6797111
17.016129 16.512825 -1.1016029
18.752193 18.19754 -0
11.221293 10.889389 -1.8285522
14.430264 14.013229 -1.4065603
18.845093 18.300468 -0.60988176
12.916162 12.551647 -1.6802772
17.01565 16.535442 -1.102319
18.777752 18.247814 -0
11.213222 10.90438 -1.8290967
14.42749 14.030119 -1.4072442
18.848074 18.328949 -0.61039221
12.912301 12.565435 -1.6809158
17.014755 16.557686 -1.1030097
18.775564 18.283957 -0
11.208886 10.9154 -1.8296322
14.424978 14.047283 -1.4079554
18.848364 18.367674 -0.61102414
12.908791 12.579576 -1.6816016
17.007828 16.585655 -1.103686
18.790398 18.323977 -0
11.201754 10.931332 -1.8303354
14.41712 14.069077 -1.4086257
18.851887 18.396784 -0.61155456
12.901036 12.598387 -1.6823093
17.006016 16.607067 -1.1043204
18.79026 18.349455 -0
11.197699 10.942648 -1.8309207
14.414763 14.086437 -1.409356
18.85129 18.434782 -0.61216116
12.898911 12.613916 -1.6831801
17.006134 16.630394 -1.1050818
18.790131 18.387808 -0
11.195214 10.95551 -1.8317646
14.406269 14.107658 -1.4099691
18.85552 18.464687 -0.61271691
12.892695 12.634277 -1.6840945
17.00075 16.65999 -1.105865
18.790207 18.41358 -0
11.188722 10.972117 -1.8325813
14.405431 14.126553 -1.410852
18.864288 18.49909 -0.61342138
12.891034 12.650304 -1.6850307
17.001146 16.683662 -1.1066481
18.799007 18.460836 -0
11.187066 10.985825 -1.8335658
14.404546 14.145425 -1.4117321
18.857189 18.530907 -0.61382127
18.734467 18.410305 0.60982645
12.887719 12.664725 -1.6857527
16.995518 16.713112 -1.1074204
18.802158 18.489733 -0
11.184096 10.998257 -1.8343371
14.401029 14.171626 -1.4128411
18.855104 18.554749 -0.61417484
18.74176 18.443213 0.61048287
12.880935 12.6846 -1.6866019
16.993715 16.734694 -1.1080639
18.812958 18.526205 -0
11.17799 11.0153 -1.8352264
14.40265 14.193027 -1.4139719
18.849628 18.575281 -0.61441875
18.730556 18.470835 0.61074764
12.87756 12.698997 -1.6873204
16.993698 16.75806 -1.1088253
18.80681 18.558985 -0
11.173943 11.026698 -1.8358253
14.400506 14.220669 -1.4152226
18.735079 18.501112 0.61131608
12.874336 12.713559 -1.6880605
16.981413 16.781057 -1.1091698
18.801044 18.57922 -0
11.165009 11.040985 -1.8362564
14.401935 14.241953 -1.4163398
18.728186 18.533081 0.61172414
12.867208 12.733162 -1.6888733
16.978374 16.8015 -1.1097373
18.790012 18.594265 -0
18.685566 18.50382 1.2217445
11.160717 11.052162 -1.8368189
14.403285 14.263191 -1.4174515
18.731386 18.562151 0.61225182
12.864476 12.748247 -1.6896825
16.964401 16.82287 -1.1099747
22.540131 22.352083 -0
18.697607 18.541616 1.2233778
11.155726 11.062655 -1.8372681
14.399183 14.289026 -1.4185197
18.726295 18.583035 0.61250931
12.857881 12.768426 -1.6905715
14.524049 14.423002 -0.95096201
22.556534 22.399605 -0
18.68693 18.556921 1.2235265
11.148511 11.07868 -1.8379896
14.399238 14.309046 -1.4195088
18.717072 18.612823 0.61284477
12.854534 12.782939 -1.6913046
14.514612 14.433771 -0.95100367
22.53265 22.4228 -0
18.674595 18.583553 1.2239925
11.145037 11.090703 -1.8386928
14.398332 14.328137 -1.4204053
12.853352 12.799622 -1.6923242
14.501563 14.451029 -0.95113963
22.531517 22.453001 -0
18.661312 18.596283 1.2239724
11.139433 11.108368 -1.8396864
14.392563 14.352426 -1.4213182
14.461318 14.420989 -0.47415936
12.844483 12.817608 -1.6929228
14.48683 14.456519 -0.95083511
22.529524 22.482384 -0
18.650471 18.624445 1.2245399
11.136288 11.120748 -1.8404486
14.391335 14.371254 -1.4221873
14.454634 14.444544 -0.4744359
12.840759 12.831796 -1.6936123
14.476845 14.46674 -0.95084232
22.541185 22.541182 -0
11.134145 11.134143 -1.8413788
14.385065 14.395109 -1.4230566
14.44507 14.455156 -0.47445312
12.831904 12.849832 -1.6942183
14.46177 14.481975 -0.9508478
14.450623 14.470811 -0
11.127549 11.150878 -1.8422182
14.383764 14.413919 -1.4239231
14.434396 14.464657 -0.47443408
12.828643 12.864515 -1.694973
14.454439 14.494858 -0.95103085
14.412327 14.462721 -0
11.124363 11.16326 -1.8429804
14.382831 14.433122 -1.4248277
14.421308 14.48184 -0.47450209
12.823445 12.877271 -1.6954738
14.447042 14.517814 -0.95154393
14.396936 14.467463 -0
11.121738 11.176222 -1.8438379
14.377297 14.457819 -1.4257787
14.414554 14.495283 -0.47461268
12.818178 12.89897 -1.6965623
14.448482 14.539549 -0.95230711
14.380913 14.471554 -0
11.115141 11.19301 -1.8446864
14.375987 14.476701 -1.4266506
14.413319 14.514293 -0.47490555
12.814814 12.913602 -1.6973099
14.450312 14.561708 -0.95309752
14.365943 14.486799 -0
11.112324 11.205809 -1.8455167
14.370749 14.501766 -1.4276371
14.409106 14.540474 -0.47526821
12.81294 12.929756 -1.6982569
14.448453 14.590363 -0.95398217
14.353709 14.494688 -0
11.105004 11.221907 -1.8462516
14.371804 14.523097 -1.4287488
14.414884 14.566629 -0.47579408
12.805573 12.949416 -1.6990769
14.450912 14.613236 -0.95481795
14.349574 14.51076 -0
11.101421 11.233962 -1.8469595
14.37248 14.544075 -1.4298252
14.413671 14.595944 -0.47625831
12.804646 12.966573 -1.7001547
14.449168 14.64211 -0.9557153
14.34337 14.534899 -0
11.096982 11.245162 -1.8475266
14.36939 14.571437 -1.431035
14.420012 14.62277 -0.47680503
12.796385 12.985376 -1.7008622
14.450966 14.664394 -0.95651114
14.348628 14.560545 -0
11.088631 11.26026 -1.8480983
14.373049 14.595514 -1.4324138
14.422021 14.645244 -0.47720939
12.795309 13.002429 -1.7019254
14.454082 14.688052 -0.95739579
14.347943 14.590381 -0
11.084956 11.272258 -1.848797
14.374932 14.617826 -1.4336182
14.420253 14.674153 -0.47765911
12.792308 13.017545 -1.7027346
14.449846 14.71454 -0.95813543
14.357214 14.62021 -0
11.076787 11.287571 -1.8494049
14.371981 14.64547 -1.4348525
14.420918 14.695338 -0.47802088
12.785177 13.037571 -1.7036018
14.452138 14.737439 -0.95896935
14.362347 14.645876 -0
11.073249 11.299735 -1.8501309
14.373672 14.667662 -1.4360433
14.417707 14.722877 -0.47842523
12.78146 13.051995 -1.7043203
14.451592 14.757478 -0.95961654
14.363996 14.678273 -0
11.069265 11.311456 -1.8507843
14.368275 14.692903 -1.4370406
14.41873 14.744497 -0.47880059
12.775478 13.073245 -1.7053472
14.449957 14.786753 -0.96053565
14.366085 14.700926 -0
11.061697 11.327427 -1.8515011
14.36795 14.713106 -1.4380351
14.42202 14.768474 -0.47925213
12.771727 13.087672 -1.7060657
14.450314 14.807784 -0.96124631
14.368613 14.724063 -0
11.056467 11.337896 -1.8519503
14.367442 14.733149 -1.4390134
14.418811 14.796154 -0.47966012
12.7694 13.103578 -1.7069764
14.450915 14.839458 -0.96231949
14.363406 14.749597 -0
11.052691 11.349866 -1.8526444
14.36236 14.758826 -1.4400516
14.424411 14.822589 -0.48019055
12.76104 13.122463 -1.7076949
14.454888 14.864285 -0.9632749
14.363236 14.770038 -0
11.04326 11.363966 -1.8530574
14.361965 14.77905 -1.4410461
14.427558 14.846547 -0.48064023
12.756617 13.136251 -1.7083298
14.461062 14.891421 -0.96437895
14.358914 14.796564 -0
11.039133 11.375598 -1.8536971
14.357793 14.805746 -1.4421824
14.426357 14.87645 -0.48111898
12.750854 13.148672 -1.7087871
14.458278 14.919783 -0.96523458
14.360651 14.81904 -0
11.03075 11.390803 -1.8542914
14.355613 14.824192 -1.4430026
14.428329 14.899282 -0.4815315
12.742109 13.167216 -1.7094619
14.463542 14.94608 -0.96628243
14.363286 14.84248 -0
11.02765 11.403522 -1.8551081
14.352195 14.841382 -1.4437002
14.426261 14.928396 -0.48198393
12.736968 13.180305 -1.7100062
14.458698 14.972418 -0.96700573
14.362524 14.872827 -0
11.024646 11.416353 -1.855943
14.340515 14.860413 -1.4440898
14.426059 14.949059 -0.48232576
12.730691 13.201446 -1.7110187
14.46238 14.99717 -0.96795207
14.366129 14.897359 -0
11.018015 11.433423 -1.8568413
14.33422 14.874658 -1.4445013
14.42765 14.971611 -0.4827283
18.836121 19.559952 0.63045776
12.727029 13.216102 -1.7117661
14.464276 15.020108 -0.96878052
14.363224 14.925596 -0
11.016084 11.447403 -1.8578622
14.101673 14.653805 -1.4220974
14.421709 14.996845 -0.48305473
18.839487 19.590803 0.63102806
12.726318 13.233843 -1.7129128
14.462491 15.049765 -0.96971595
14.36471 14.948012 -0
11.009222 11.464277 -1.8587288
14.088722 14.671065 -1.4223399
14.420541 15.016599 -0.48336661
18.828186 19.60643 0.63110787
12.717219 13.25213 -1.713555
14.462814 15.071147 -0.97044295
14.364683 14.968888 -0
11.00656 11.477533 -1.8596317
14.078961 14.681403 -1.422389
14.41221 15.039417 -0.48361504
18.819479 19.638485 0.63150495
12.714584 13.267912 -1.7144476
14.46371 15.093158 -0.97120976
14.357673 14.992979 -0
18.779524 19.610489 1.2614677
11.003992 11.490903 -1.8605527
14.066705 14.699405 -1.4227051
14.41032 15.058475 -0.48390427
18.807032 19.652945 0.63154757
12.70536 13.286111 -1.7150791
14.456176 15.116953 -0.97176629
14.35541 15.011581 -0
18.767742 19.625597 1.2615964
