# .PCD v0.7 - Point Cloud Data file format
VERSION 0.7
FIELDS x y z
SIZE 4 4 4
TYPE F F F
COUNT 1 1 1
WIDTH 1550
HEIGHT 1
VIEWPOINT 0 0 0 1 0 0 0
POINTS 1550
DATA ascii
10.158609 -6.774951 -1.4279276
12.736372 -8.4941053 -1.0705085
17.01778 -11.349449 -0.47490919
24.376186 -16.256897 0.68025762
11.306952 -7.535099 -1.2676665
14.574365 -9.7125454 -0.81369263
20.546638 -13.692545 -0
24.276001 -16.165607 1.3550237
10.16295 -6.7675991 -1.4278733
12.739866 -8.4835911 -1.070304
17.025072 -11.328571 -0.47478133
24.352947 -16.204578 0.67913514
11.311595 -7.5267944 -1.2675976
14.581369 -9.7025194 -0.81370533
20.556606 -13.668123 -0
24.250889 -16.124458 1.3529934
10.165927 -6.7593427 -1.4276282
12.746698 -8.4688873 -1.0701324
17.030699 -11.31517 -0.47471786
24.329742 -16.164642 0.67817318
11.317947 -7.5139337 -1.267427
14.590254 -9.6864023 -0.81363463
20.561068 -13.650398 -0
24.234247 -16.089006 1.3514379
10.17245 -6.7483282 -1.427551
12.751439 -8.4592104 -1.0700344
17.034332 -11.300449 -0.47459909
24.315115 -16.118248 0.67729461
11.322575 -7.5056219 -1.2673581
14.596622 -9.6759558 -0.81361288
20.568903 -13.624588 -0
24.230392 -16.049913 1.3502849
10.175477 -6.7401109 -1.4273151
12.755978 -8.4494028 -1.0699199
17.044561 -11.281549 -0.47455466
24.305424 -16.08741 0.67671162
11.326352 -7.4967494 -1.2671947
14.605283 -9.6596966 -0.81353128
20.569775 -13.604514 -0
24.224831 -16.021908 1.3493513
10.180018 -6.7328982 -1.4272925
12.763388 -8.4350948 -1.0698
17.050478 -11.268355 -0.47450027
24.297623 -16.057863 0.67618215
11.333418 -7.4843702 -1.2671077
14.610459 -9.6484652 -0.81344426
20.571184 -13.584812 -0
24.22772 -15.987376 1.348579
10.18716 -6.7222981 -1.4273061
12.769306 -8.4262037 -1.0698028
17.057688 -11.256019 -0.47448212
24.301285 -16.023746 0.67581671
11.337374 -7.4756212 -1.2669662
14.615693 -9.6372747 -0.81336087
20.575222 -13.556558 -0
24.225679 -15.961763 1.3478448
10.192532 -6.7156329 -1.4274013
12.776724 -8.4119053 -1.0696856
17.066301 -11.236067 -0.47439417
24.296907 -15.996533 0.67538422
11.342492 -7.4676399 -1.2669553
14.623365 -9.6203766 -0.8132267
20.576523 -13.536822 -0
24.22254 -15.935453 1.3470508
10.199429 -6.7048707 -1.4273832
12.782007 -8.4025984 -1.0696365
17.072512 -11.223077 -0.47434884
24.301798 -15.963299 0.67505515
11.350307 -7.4557581 -1.2669553
14.629491 -9.6097803 -0.8131941
20.577185 -13.516685 -0
24.223131 -15.899523 1.3461571
10.20388 -6.6975994 -1.4273515
12.786404 -8.3927107 -1.0695139
17.080988 -11.203051 -0.47425818
24.297752 -15.93637 0.6746335
11.355899 -7.4480882 -1.2669988
14.637458 -9.5930862 -0.81307805
20.583389 -13.489926 -0
24.219181 -15.872748 1.3453213
10.207191 -6.6895809 -1.4271609
12.795609 -8.3795938 -1.0695493
17.086681 -11.189733 -0.47419927
24.297632 -15.912043 0.67432165
11.363888 -7.4363203 -1.2670206
14.644184 -9.5828857 -0.81307989
20.586821 -13.471639 -0
24.211939 -15.843849 1.3443043
10.212079 -6.6775079 -1.4268659
12.799076 -8.3691015 -1.0693504
17.092888 -11.176754 -0.47415483
24.297709 -15.87576 0.67386192
11.368425 -7.4279594 -1.266948
14.648583 -9.571166 -0.812953
20.595781 -13.44672 -0
24.213717 -15.808823 1.3434831
10.215277 -6.6694226 -1.4266617
12.805242 -8.3603773 -1.0693777
17.10334 -11.158037 -0.47412038
24.297075 -15.851154 0.67353737
11.372599 -7.4193621 -1.2668356
14.658304 -9.5556288 -0.81293666
20.600256 -13.429138 -0
24.208467 -15.781302 1.3425803
10.220922 -6.6578531 -1.4264758
12.811769 -8.3455172 -1.0691924
17.109818 -11.145242 -0.47408411
24.290401 -15.822635 0.67304593
11.378601 -7.4063029 -1.2666396
14.661963 -9.5434351 -0.81276989
20.604027 -13.41111 -0
24.21242 -15.747773 1.3418841
10.225406 -6.6506104 -1.4264531
12.816286 -8.335721 -1.0690833
17.12079 -11.126871 -0.47406507
24.291044 -15.786847 0.67260528
11.382335 -7.3974247 -1.26648
14.668328 -9.5330057 -0.81275356
20.613375 -13.386483 -0
24.207373 -15.720452 1.3409959
10.230274 -6.6436181 -1.4264848
12.822687 -8.3207884 -1.0688899
17.125999 -11.113257 -0.47399434
24.283386 -15.757768 0.6720885
11.388769 -7.384655 -1.2663348
14.676338 -9.516366 -0.81264478
20.61521 -13.367223 -0
24.205311 -15.6951 1.3402743
10.238495 -6.6337237 -1.4266617
12.82712 -8.3109446 -1.0687754
17.13287 -11.100725 -0.47396988
24.282337 -15.720975 0.67160344
11.393236 -7.3762584 -1.2662586
14.683175 -9.5062447 -0.81265569
20.62431 -13.342465 -0
24.203518 -15.657959 1.3392664
10.242798 -6.6263638 -1.4266164
12.831839 -8.3012896 -1.0686855
17.141861 -11.081082 -0.47389734
24.275497 -15.692507 0.67111111
11.397436 -7.3676901 -1.2661533
14.692335 -9.4903555 -0.81261218
20.627026 -13.323804 -0
24.199497 -15.631404 1.3384397
10.247552 -6.6192956 -1.4266346
12.839117 -8.2869387 -1.0685683
17.148806 -11.068604 -0.47387558
24.269056 -15.664331 0.67063057
11.404851 -7.3555613 -1.2661207
14.699646 -9.4805393 -0.8126502
20.633532 -13.307601 -0
24.196468 -15.593561 1.3373684
10.252717 -6.6074257 -1.4263896
12.845031 -8.2780581 -1.0685793
17.154362 -11.055233 -0.47381574
24.270935 -15.629563 0.67022985
11.409165 -7.3470707 -1.26603
14.704948 -9.46943 -0.81257772
20.641575 -13.282202 -0
24.193468 -15.567733 1.3366015
10.255304 -6.5989647 -1.4261082
12.852381 -8.2637587 -1.0684702
17.16629 -11.037495 -0.47382569
24.266172 -15.602541 0.66979736
11.413507 -7.3385992 -1.2659429
14.714397 -9.4537306 -0.81255233
20.647886 -13.265888 -0
24.186834 -15.539598 1.3356353
10.259663 -6.586587 -1.4257543
12.858442 -8.2549734 -1.0684948
17.171955 -11.024199 -0.47376949
24.2682 -15.567948 0.66940296
11.42063 -7.3262858 -1.2658812
14.719089 -9.442234 -0.81244719
20.650238 -13.247041 -0
24.191036 -15.506533 1.33497
10.262037 -6.5779991 -1.4254458
12.863317 -8.2454271 -1.0684212
17.182371 -11.005495 -0.47373867
24.265251 -15.542155 0.66902214
11.425218 -7.317975 -1.2658231
14.727687 -9.4259949 -0.8123765
20.65834 -13.221724 -0
24.184898 -15.478786 1.3340346
10.265157 -6.5698919 -1.4252417
12.872535 -8.2323303 -1.0684702
17.189394 -10.993076 -0.47372052
24.262508 -15.516521 0.66864771
11.431924 -7.3053994 -1.265718
14.732423 -9.4145336 -0.81227499
20.658678 -13.201619 -0
24.183697 -15.454229 1.3333728
10.270822 -6.5583663 -1.4250737
12.877195 -8.2226496 -1.0683804
17.19578 -10.980253 -0.47368518
24.261755 -15.480267 0.66817981
11.435939 -7.2967262 -1.2655982
14.737676 -9.4034061 -0.81220245
20.664587 -13.174938 -0
24.182562 -15.417861 1.3324193
10.275103 -6.5510063 -1.425033
12.882899 -8.2136364 -1.0683776
17.206478 -10.961737 -0.47366342
24.25823 -15.454198 0.66778547
11.440342 -7.2883019 -1.265522
14.747218 -9.3877792 -0.81218612
20.666498 -13.155872 -0
24.180317 -15.392698 1.3317032
10.28091 -6.5395765 -1.4248878
12.889949 -8.1991577 -1.0682496
17.214127 -10.949721 -0.47366342
24.253197 -15.427197 0.66735023
11.44636 -7.2752953 -1.2653441
14.752584 -9.3767281 -0.81212085
20.667238 -13.136077 -0
24.183346 -15.359063 1.3309835
10.284883 -6.532023 -1.4248061
12.894156 -8.1891956 -1.0681242
17.224693 -10.931124 -0.47363892
24.255259 -15.392857 0.6669631
11.45045 -7.2666774 -1.2652353
14.758862 -9.3662596 -0.81210637
20.676462 -13.111561 -0
24.184572 -15.336158 1.3304614
10.288458 -6.5242181 -1.42467
12.901639 -8.1750002 -1.0680343
17.230804 -10.918135 -0.47359723
24.254719 -15.368771 0.66665298
11.457067 -7.2540584 -1.2651265
14.76797 -9.3503609 -0.81206828
20.680067 -13.093613 -0
24.189537 -15.315638 1.330146
10.294465 -6.5129218 -1.4245566
12.90596 -8.1651163 -1.0679199
17.23687 -10.905121 -0.47355461
24.264065 -15.339106 0.66646802
11.461143 -7.2454343 -1.2650176
14.773209 -9.3392353 -0.81199759
20.686197 -13.077272 -0
24.205198 -15.29007 1.330126
10.297665 -6.5048838 -1.4243705
12.911064 -8.1557302 -1.0678707
17.2463 -10.885814 -0.47350019
24.269516 -15.318849 0.6663239
11.464554 -7.2363935 -1.2648362
14.780472 -9.3221779 -0.81185985
20.695156 -13.052623 -0
24.219629 -15.27554 1.3303326
10.301777 -6.4974236 -1.4243115
12.918839 -8.1417274 -1.0678082
17.251417 -10.87221 -0.47343221
24.282288 -15.303213 0.666381
11.471829 -7.2241969 -1.2648035
14.784995 -9.3106089 -0.81175107
20.702578 -13.03711 -0
24.243803 -15.255322 1.3307823
10.307425 -6.485909 -1.4241527
12.923893 -8.1323118 -1.0677563
17.258078 -10.859581 -0.47340682
24.302465 -15.280396 0.66649526
11.474994 -7.2150064 -1.2645967
14.78766 -9.2978754 -0.81154078
20.709042 -13.010914 -0
24.269316 -15.247735 1.331598
10.311064 -6.4781542 -1.4240303
12.931248 -8.1180477 -1.0676609
17.267059 -10.840008 -0.47334152
24.323843 -15.270153 0.666789
11.479039 -7.2063732 -1.2644879
14.793785 -9.2801247 -0.81134313
20.713785 -12.993733 -0
24.298367 -15.242338 1.3326077
10.317415 -6.4670854 -1.4239713
12.935591 -8.1081905 -1.067552
17.273167 -10.827038 -0.47330165
24.356932 -15.25539 0.66725773
11.485492 -7.1936674 -1.2643681
14.797516 -9.268075 -0.81119269
20.715303 -12.974543 -0
24.33651 -15.230775 1.3338243
10.320447 -6.4589543 -1.4237671
12.93897 -8.0977316 -1.067364
17.281681 -10.807183 -0.47322458
24.38413 -15.248734 0.66771108
11.489719 -7.1851521 -1.264281
14.8044 -9.2508163 -0.81103861
20.722385 -12.948785 -0
24.369772 -15.227924 1.3350642
10.323638 -6.4509254 -1.4235857
12.945393 -8.0828981 -1.0671951
17.287434 -10.793999 -0.47317562
24.415506 -15.244655 0.66827869
11.496149 -7.1724367 -1.2641612
14.809663 -9.2397356 -0.81097335
20.725157 -12.930407 -0
24.401419 -15.224023 1.3362154
10.329499 -6.4395566 -1.4234631
12.948321 -8.0721684 -1.0669715
17.292877 -10.780625 -0.47311848
24.448959 -15.229981 0.66875738
11.501121 -7.1643887 -1.2641577
14.814521 -9.228404 -0.81088632
20.734043 -12.905807 -0
24.432884 -15.208132 1.3370656
10.331983 -6.4310932 -1.4231863
12.951241 -8.0614376 -1.0667481
17.303858 -10.762325 -0.47311035
24.477858 -15.224273 0.66925699
11.505425 -7.1559262 -1.2640815
14.824474 -9.2130699 -0.81090266
20.739664 -12.889225 -0
24.456022 -15.198856 1.3377509
10.337558 -6.4195538 -1.4230275
12.958947 -8.0474186 -1.0666882
17.310007 -10.749397 -0.47307315
24.501419 -15.215216 0.66961056
11.512549 -7.1436481 -1.2640415
14.828914 -9.2014847 -0.81079388
20.74514 -12.87256 -0
24.479288 -15.177803 1.3381534
10.341114 -6.4117627 -1.4229006
12.961912 -8.036727 -1.0664703
17.321255 -10.731264 -0.47307315
24.533274 -15.199421 0.67004579
11.517699 -7.1357117 -1.2640597
14.83477 -9.1907797 -0.81076306
20.756449 -12.849492 -0
24.49449 -15.163564 1.3384053
10.344334 -6.4037657 -1.4227281
12.969526 -8.0226564 -1.0664048
17.328112 -10.718779 -0.47305593
24.55125 -15.186851 0.67024708
11.524371 -7.1231556 -1.2639725
14.841498 -9.1734552 -0.81060535
20.761826 -12.83278 -0
24.507725 -15.148102 1.3385503
10.349879 -6.3922162 -1.4225693
12.97393 -8.0128632 -1.0663067
17.335091 -10.706371 -0.47304234
24.576546 -15.166937 0.67050362
11.528547 -7.1146183 -1.2638855
14.846272 -9.1620874 -0.81051648
20.766691 -12.815759 -0
31.06218 -19.154449 1.6954416
10.353844 -6.3846836 -1.4225012
12.977797 -8.0027399 -1.066165
17.344896 -10.687352 -0.47300425
11.532452 -7.1059151 -1.2637694
14.853367 -9.1450014 -0.81038052
20.774113 -12.790318 -0
31.069065 -19.128771 1.6950881
10.356482 -6.3763347 -1.4222517
12.983415 -7.9874506 -1.0659388
17.352554 -10.675363 -0.47300971
11.538859 -7.0932031 -1.2636569
14.859182 -9.1342821 -0.8103497
20.780441 -12.774218 -0
31.081099 -19.091322 1.694653
10.362293 -6.3649578 -1.4221337
12.987992 -7.9777727 -1.0658572
17.35684 -10.661304 -0.47292358
11.542615 -7.0844135 -1.2635262
14.864325 -9.1231508 -0.81028265
20.787182 -12.748385 -0
31.062521 -19.050056 1.6929145
10.365511 -6.3569717 -1.4219658
12.993548 -7.9624572 -1.0656283
17.366764 -10.642367 -0.47289002
11.547857 -7.0765362 -1.2635589
14.87447 -9.1079464 -0.81031525
20.793711 -12.732422 -0
10.371699 -6.34583 -1.4219023
12.997941 -7.9526725 -1.0655328
17.371391 -10.628529 -0.47281384
11.554365 -7.0638919 -1.263461
14.880325 -9.0972548 -0.81028807
20.798796 -12.715579 -0
10.374902 -6.3378391 -1.4217345
13.002691 -7.9431086 -1.0654675
17.380512 -10.609111 -0.47275946
11.559726 -7.056087 -1.2635081
14.887073 -9.0871086 -0.81030983
20.811266 -12.693283 -0
10.379125 -6.3304734 -1.4217073
13.010404 -7.9291229 -1.0654184
17.385414 -10.595449 -0.47269145
11.566112 -7.0433707 -1.2633992
14.89678 -9.0716352 -0.81032073
20.817421 -12.677105 -0
10.38439 -6.3187742 -1.4215212
13.015037 -7.9194908 -1.0653448
17.392038 -10.582843 -0.47267061
11.570328 -7.0348701 -1.2633231
14.902909 -9.0611115 -0.81030983
20.830484 -12.655176 -0
10.387969 -6.3110194 -1.4214078
13.020063 -7.9100995 -1.0653039
17.400574 -10.563085 -0.47260168
11.574239 -7.0261855 -1.2632142
14.912223 -9.0453987 -0.81030077
20.838045 -12.639861 -0
10.393578 -6.2995343 -1.4212717
13.027106 -7.8957133 -1.0652032
17.407143 -10.550448 -0.47257993
11.580858 -7.013618 -1.2631344
14.918234 -9.0348043 -0.81028444
20.843723 -12.623408 -0
10.397541 -6.2920156 -1.4212127
13.032516 -7.8865561 -1.065195
17.415476 -10.530577 -0.47250649
27.127518 -16.403135 0.73600793
11.585087 -7.0051284 -1.2630618
14.922435 -9.0231152 -0.81017023
20.855761 -12.600867 -0
10.400969 -6.2841735 -1.4210811
13.040667 -7.8728437 -1.0651869
17.422054 -10.517952 -0.47248563
27.118402 -16.37178 0.73545033
11.590041 -6.9970794 -1.263069
14.93084 -9.0068588 -0.81011403
20.861744 -12.584609 -0
10.407245 -6.273098 -1.4210403
13.04616 -7.8637376 -1.0651869
17.42568 -10.503549 -0.47238499
27.134527 -16.342768 0.73542315
11.596196 -6.9842358 -1.2629421
14.93455 -8.9948826 -0.80997443
20.86952 -12.569437 -0
24.438238 -14.707207 1.325128
10.410491 -6.2651505 -1.420886
13.052849 -7.855351 -1.0652848
17.436737 -10.485334 -0.47238681
24.530949 -14.751339 0.66457945
11.600335 -6.9756975 -1.2628622
14.941753 -8.9779119 -0.80985481
20.879759 -12.545825 -0
24.442413 -14.686484 1.324798
10.413765 -6.2572217 -1.4207363
13.061268 -7.8417983 -1.0653013
17.440136 -10.470807 -0.47228074
24.509266 -14.715013 0.66371357
11.606633 -6.9629459 -1.2627534
14.945475 -8.9659529 -0.80971706
20.889013 -12.531547 -0
24.455805 -14.659697 1.3246911
10.419347 -6.2457342 -1.4206047
13.06694 -7.832798 -1.0653176
17.445465 -10.457444 -0.47222725
24.521982 -14.687733 0.66364104
11.609923 -6.9539018 -1.2625828
14.95086 -8.9549952 -0.80966991
20.898773 -12.507659 -0
24.465296 -14.642179 1.3246511
10.422905 -6.2379808 -1.4204959
13.0743 -7.8186102 -1.0652494
17.452585 -10.436885 -0.47212389
24.525728 -14.666721 0.66346514
11.613574 -6.945076 -1.2624522
14.958086 -8.9380531 -0.80955386
20.906528 -12.492485 -0
24.472834 -14.623494 1.3245062
10.428033 -6.2262268 -1.4203053
13.079755 -7.8094807 -1.0652494
17.458359 -10.423798 -0.47208309
24.541275 -14.64115 0.66347057
11.620506 -6.9327116 -1.2624159
14.96392 -8.9273682 -0.80953211
20.911924 -12.475904 -0
24.483273 -14.594961 1.3242433
10.431077 -6.2181706 -1.4201283
13.081923 -7.7983918 -1.0649824
17.464802 -10.402851 -0.47196248
24.544847 -14.620057 0.66329104
11.623439 -6.9234624 -1.2622091
14.969579 -8.9165802 -0.80950129
20.922626 -12.4526 -0
24.48571 -14.573255 1.3238245
10.434049 -6.210073 -1.4199423
13.089581 -7.7843895 -1.0649415
17.472765 -10.391075 -0.47198153
24.552027 -14.601121 0.66320944
11.630983 -6.9114656 -1.2622417
14.978506 -8.9006596 -0.80947953
20.926311 -12.435018 -0
24.486284 -14.550456 1.3233061
10.438645 -6.1980143 -1.4196837
13.092298 -7.7736378 -1.0647209
17.477028 -10.3771 -0.47190085
24.559849 -14.570979 0.66300821
11.6343 -6.902451 -1.2620784
14.983005 -8.889185 -0.80938709
20.936802 -12.411603 -0
24.487545 -14.516529 1.3225518
10.442903 -6.1906857 -1.4196746
13.096984 -7.7640586 -1.0646609
17.488455 -10.359131 -0.47191626
24.560944 -14.548455 0.66276336
11.63905 -6.8942871 -1.2620713
14.9916 -8.8730726 -0.809349
20.941294 -12.394516 -0
24.487534 -14.493427 1.3220044
10.449113 -6.1795883 -1.4196383
13.103229 -7.7492285 -1.0645083
17.494507 -10.346223 -0.47188452
24.559059 -14.524188 0.66243881
11.644957 -6.8813233 -1.2619296
14.995573 -8.8612938 -0.80922937
20.947958 -12.37872 -0
24.492584 -14.461804 1.3214587
10.454226 -6.1727657 -1.4197472
13.108904 -7.7402372 -1.0645301
17.506241 -10.328433 -0.47190899
24.564569 -14.492747 0.66217768
11.649926 -6.873291 -1.2619479
14.99974 -8.8496332 -0.8091206
20.958889 -12.355587 -0
24.498674 -14.442344 1.321243
10.458299 -6.1653275 -1.4197154
13.11576 -7.7257738 -1.0644293
17.51284 -10.315852 -0.47189268
24.564991 -14.469886 0.66191655
11.653749 -6.8645835 -1.2618426
15.007653 -8.8331289 -0.80904812
20.966805 -12.340536 -0
24.507574 -14.424544 1.3211795
10.465351 -6.1547265 -1.4197971
13.120344 -7.7161412 -1.0643638
17.520206 -10.303722 -0.47189721
24.57683 -14.442215 0.66182768
11.66073 -6.8522577 -1.2618208
15.012841 -8.8220768 -0.80899549
20.973259 -12.324629 -0
24.524584 -14.399999 1.3212829
10.468542 -6.1467705 -1.4196473
13.124586 -7.7063088 -1.0642712
17.530481 -10.285073 -0.47188362
24.583437 -14.423018 0.66173428
11.665411 -6.8440561 -1.2618099
15.021263 -8.8058767 -0.80895203
20.984266 -12.301553 -0
24.536482 -14.383959 1.3213826
10.472395 -6.1392055 -1.4195884
13.130631 -7.6913791 -1.0641078
17.536175 -10.271964 -0.47184372
24.595692 -14.407135 0.66179323
11.671329 -6.8311095 -1.2616757
15.026397 -8.794796 -0.80889761
20.991198 -12.285933 -0
10.477479 -6.1274519 -1.4194069
13.134888 -7.681561 -1.0640179
17.542196 -10.259048 -0.4718129
11.675928 -6.8228617 -1.2616575
15.032129 -8.7840672 -0.80887586
21.001554 -12.262486 -0
10.481117 -6.1197643 -1.4193207
13.140804 -7.6665649 -1.0638462
17.550232 -10.239099 -0.47174037
11.679378 -6.8139443 -1.261516
15.040174 -8.7676535 -0.80881423
21.008289 -12.246759 -0
10.48581 -6.107789 -1.4190893
13.145345 -7.656918 -1.0637808
17.557037 -10.226646 -0.47173131
11.686272 -6.8015733 -1.2614906
15.045919 -8.7569351 -0.80879426
21.015686 -12.231421 -0
10.488563 -6.0995893 -1.4188851
13.149373 -7.646975 -1.0636744
17.565845 -10.207157 -0.47168052
11.689807 -6.7927094 -1.26136
15.051186 -8.7459383 -0.80874896
21.027605 -12.208898 -0
10.491745 -6.0916419 -1.4187399
13.156667 -7.6327901 -1.0636172
17.572462 -10.194597 -0.4716669
11.696443 -6.7801909 -1.2613091
15.060235 -8.730114 -0.80874354
21.032372 -12.19204 -0
10.497715 -6.0804186 -1.4186856
13.160879 -7.6229587 -1.0635273
17.57873 -10.181837 -0.47164425
11.700028 -6.7713614 -1.2611858
15.065414 -8.7190695 -0.8086946
21.045094 -12.169989 -0
10.502025 -6.0731268 -1.4186946
13.165996 -7.6136518 -1.063511
17.588673 -10.163013 -0.47162521
11.704046 -6.7627831 -1.2611096
15.073929 -8.7029371 -0.80866194
21.052164 -12.154473 -0
10.509118 -6.0625525 -1.4187944
13.172949 -7.5992761 -1.0634292
17.595358 -10.150497 -0.47161433
11.710548 -6.7501926 -1.261048
15.078784 -8.6917105 -0.80859667
21.058342 -12.138447 -0
10.514458 -6.0558534 -1.4189441
13.177035 -7.5893779 -1.0633311
17.604961 -10.131481 -0.47158712
11.714752 -6.7417245 -1.2609935
15.083834 -8.6805973 -0.80854231
21.071213 -12.116485 -0
10.517876 -6.0480471 -1.4188353
13.184063 -7.5750504 -1.0632576
17.611015 -10.118605 -0.47155994
11.719659 -6.7336607 -1.2610153
15.092103 -8.6643305 -0.8084988
21.077362 -12.10045 -0
31.236366 -17.932703 1.6733629
10.523968 -6.0368943 -1.4188035
13.187928 -7.5650301 -1.0631431
17.616753 -10.10555 -0.47152457
11.726603 -6.7213264 -1.2610044
15.097336 -8.653326 -0.80845529
21.082212 -12.083673 -0
31.25865 -17.901999 1.6735514
10.52589 -6.0282345 -1.4184949
13.191617 -7.5549111 -1.0630151
17.625225 -10.085894 -0.47146836
11.731292 -6.7131376 -1.2610044
15.10561 -8.6370659 -0.80841357
21.090988 -12.059379 -0
31.245193 -17.865335 1.6721628
10.529187 -6.0203648 -1.4183724
13.198169 -7.5403194 -1.0629061
17.631414 -10.073102 -0.47144568
11.737775 -6.7005405 -1.2609463
15.110687 -8.6259766 -0.80836284
21.096586 -12.043043 -0
31.275578 -17.839275 1.6727881
10.532925 -6.0078745 -1.4180276
13.202448 -7.5305438 -1.0628271
17.636644 -10.059765 -0.47139764
11.741842 -6.691998 -1.2608811
15.115689 -8.6148453 -0.80830842
21.104095 -12.018045 -0
31.286566 -17.816607 1.6727102
10.536846 -6.0003662 -1.4179913
13.208464 -7.5156541 -1.0626773
17.647339 -10.041387 -0.47140217
11.745429 -6.6831832 -1.260765
15.119461 -8.6030169 -0.8081888
21.107237 -12.010078 -0
31.316807 -17.804886 1.6736619
10.53938 -5.9920688 -1.417769
13.209901 -7.5103688 -1.0625818
17.64901 -10.034184 -0.4713532
11.749348 -6.6745591 -1.2606851
15.125294 -8.5923634 -0.80817974
21.117458 -11.986638 -0
10.542886 -5.9843264 -1.4176782
13.216538 -7.4958396 -1.0624838
17.659916 -10.015927 -0.47136408
11.753328 -6.6659713 -1.2606125
15.132552 -8.5755386 -0.80808729
21.124598 -11.971199 -0
10.546919 -5.9720211 -1.4173788
13.22014 -7.4856892 -1.0623529
17.664558 -10.002269 -0.47130153
11.759997 -6.6534872 -1.2605798
15.138026 -8.5646839 -0.80806011
21.132576 -11.956237 -0
10.550917 -5.964561 -1.4173561
13.224854 -7.4761701 -1.0623121
17.673834 -9.9830923 -0.47126979
11.764504 -6.6451988 -1.2605653
15.146851 -8.5487499 -0.80805284
21.143555 -11.933236 -0
10.552848 -5.955935 -1.4170567
13.231522 -7.4616661 -1.0622194
17.678656 -9.9695425 -0.47121269
11.771084 -6.6326656 -1.2605255
15.152135 -8.5377903 -0.8080166
21.149803 -11.917303 -0
10.558876 -5.9447665 -1.4170295
13.236116 -7.4520831 -1.0621704
17.683943 -9.9562597 -0.47116825
11.775813 -6.6245036 -1.2605363
15.157038 -8.5266171 -0.80796039
21.160366 -11.894076 -0
10.56201 -5.9368234 -1.4168934
13.239584 -7.4418669 -1.0620314
17.692827 -9.9368753 -0.47112745
11.778875 -6.6154046 -1.2603694
15.165856 -8.5106821 -0.80795491
21.166416 -11.878039 -0
10.567374 -5.9252853 -1.4167799
13.246044 -7.4272552 -1.0619252
17.697649 -9.923337 -0.47107124
11.785491 -6.6028953 -1.2603368
15.170568 -8.4994059 -0.8078897
21.171295 -11.86135 -0
10.570086 -5.9171104 -1.4165894
13.249186 -7.4168639 -1.0617616
17.707008 -9.9042263 -0.47104403
11.788978 -6.594039 -1.260217
15.175885 -8.4884701 -0.80785704
21.18251 -11.838506 -0
10.573741 -5.9094644 -1.4165258
13.256979 -7.4030042 -1.0617644
17.711975 -9.8907766 -0.47099236
11.793069 -6.5855227 -1.2601626
15.183744 -8.472003 -0.80780268
21.189236 -11.822859 -0
10.578399 -5.8975382 -1.4163216
13.260885 -7.3930449 -1.0616635
17.717239 -9.8774967 -0.47094885
11.799585 -6.5729613 -1.2601227
15.189075 -8.4610777 -0.80777186
21.195095 -11.806732 -0
10.582276 -5.8900199 -1.4162899
13.266792 -7.3842025 -1.0617235
17.725218 -9.8576279 -0.47088626
11.804375 -6.5648355 -1.2601445
15.196359 -8.4442949 -0.80768847
21.207073 -11.784322 -0
10.584758 -5.8817258 -1.4160721
13.274586 -7.3703432 -1.061729
17.730013 -9.8440943 -0.47083098
11.810631 -6.5521307 -1.2600791
15.202147 -8.4336271 -0.80768299
21.21386 -11.768718 -0
24.490232 -13.575159 1.3009027
10.589384 -5.869792 -1.4158679
13.278842 -7.3605828 -1.0616581
17.735378 -9.8308811 -0.47079107
11.814692 -6.543601 -1.2600247
15.206393 -8.4221048 -0.80759597
21.225317 -11.746023 -0
24.510664 -13.564123 1.3014847
10.591544 -5.8613267 -1.4156094
13.282954 -7.3507447 -1.0615764
17.744501 -9.8116608 -0.47076026
24.59647 -13.600395 0.65254247
11.818338 -6.534843 -1.2599267
15.215342 -8.406251 -0.80760324
21.231804 -11.730258 -0
24.520708 -13.547329 1.3015156
10.596284 -5.8494635 -1.4154233
13.290099 -7.3365293 -1.0615327
17.751381 -9.7992897 -0.47076115
24.589891 -13.57435 0.65211636
11.82303 -6.5212798 -1.2596982
15.219873 -8.3948917 -0.80753255
21.238722 -11.714734 -0
24.534882 -13.521644 1.3015156
10.599414 -5.8415403 -1.4152963
13.293102 -7.3260832 -1.0613638
17.762043 -9.780921 -0.47077203
24.600809 -13.546783 0.65202928
11.82666 -6.5125179 -1.2596002
15.226312 -8.3845844 -0.80756336
21.247589 -11.690622 -0
24.542297 -13.503402 1.3014085
10.604611 -5.8347559 -1.4154459
13.299912 -7.3116894 -1.0612957
17.767191 -9.7675962 -0.47072759
24.606153 -13.527349 0.6519205
11.831326 -6.4989495 -1.2593715
15.234092 -8.3680897 -0.80751079
21.253109 -11.674337 -0
24.551275 -13.48602 1.301385
10.611055 -5.8238344 -1.4154913
13.304126 -7.3019152 -1.0612248
17.774725 -9.7555847 -0.47074664
24.61986 -13.501329 0.6519087
11.835212 -6.4903331 -1.2593026
15.240204 -8.3576031 -0.80752528
21.257145 -11.657244 -0
24.564905 -13.46004 1.3013597
10.615697 -5.8167419 -1.4155685
13.308366 -7.2921572 -1.0611567
17.782499 -9.7356339 -0.47068226
24.627327 -13.483069 0.65185702
11.839058 -6.4816952 -1.25923
15.247921 -8.3410769 -0.80747092
21.267147 -11.633777 -0
24.57563 -13.443618 1.3014303
10.619449 -5.8091621 -1.4155277
13.315003 -7.2776747 -1.0610777
17.788673 -9.7228804 -0.47066596
24.641396 -13.46842 0.65198034
11.846112 -6.4694428 -1.259259
15.253534 -8.3303175 -0.80746001
21.274029 -11.618253 -0
24.593361 -13.419875 1.3016243
10.62522 -5.7978706 -1.4154868
13.320902 -7.2688251 -1.0611432
17.79388 -9.7095985 -0.47062424
24.663647 -13.447058 0.65219611
11.850523 -6.4611154 -1.2592481
15.257908 -8.318882 -0.80738389
21.285463 -11.595576 -0
24.606356 -13.404681 1.3018165
10.627425 -5.7894492 -1.4152418
13.325049 -7.2590203 -1.0610695
17.804792 -9.69137 -0.47064421
24.680197 -13.433738 0.65238559
11.854655 -6.4526362 -1.2592082
15.266508 -8.3028431 -0.80737847
21.294172 -11.581049 -0
24.619856 -13.389755 1.3020358
10.631062 -5.7770019 -1.4149197
13.332952 -7.2452297 -1.061094
17.808878 -9.6774836 -0.47057348
24.700138 -13.422247 0.6526649
11.860688 -6.4398289 -1.259132
15.270689 -8.2913084 -0.80729324
21.301977 -11.566031 -0
10.620223 -5.7615123 -1.4129415
13.337253 -7.2355113 -1.0610341
17.820444 -9.6596107 -0.47061154
27.147053 -14.715117 0.71691346
11.86354 -6.4306574 -1.2589579
15.276783 -8.2808123 -0.80730957
21.313013 -11.54314 -0
10.61974 -5.7516575 -1.4123425
13.343795 -7.220984 -1.0609524
17.825123 -9.6460514 -0.47055715
27.121256 -14.676647 0.71596146
11.868899 -6.41749 -1.2588127
15.28421 -8.264142 -0.8072443
21.318832 -11.527051 -0
10.592954 -5.7228112 -1.4079823
13.348524 -7.2115002 -1.0609279
17.8312 -9.6332521 -0.47053993
27.104136 -14.630708 0.71510464
11.87187 -6.4083896 -1.258653
15.290182 -8.253581 -0.80725515
21.326668 -11.512053 -0
25.214191 -13.599159 1.3309491
10.553954 -5.6922269 -1.4022701
13.353247 -7.2020125 -1.0609033
17.839354 -9.6135368 -0.47048914
26.937984 -14.516743 0.71045339
11.875006 -6.3993802 -1.2585115
15.297442 -8.236825 -0.80718267
21.336512 -11.488528 -0
25.203856 -13.570879 1.329903
10.501287 -5.6543608 -1.3947476
13.361399 -7.1883574 -1.0609524
17.845201 -9.6006174 -0.47046649
25.28026 -13.600637 0.66648257
11.880844 -6.3864813 -1.2584208
15.304049 -8.2266054 -0.80722797
21.345249 -11.474018 -0
25.215578 -13.543149 1.3297725
10.555908 -5.6695204 -1.4012129
13.367307 -7.1795073 -1.0610232
17.849628 -9.5869379 -0.47040665
25.272053 -13.562117 0.66589141
11.884478 -6.3777437 -1.2583338
15.307588 -8.2147379 -0.80711198
21.355186 -11.450552 -0
25.223204 -13.524564 1.3296764
10.579183 -5.6725087 -1.4037765
13.375333 -7.165781 -1.0610641
17.859074 -9.5679264 -0.47039124
25.28513 -13.546407 0.6659866
11.888824 -6.36939 -1.2583228
15.316491 -8.1988688 -0.80712825
21.362797 -11.435437 -0
25.239624 -13.51069 1.3300444
10.630859 -5.6858916 -1.4098426
13.379989 -7.1562576 -1.0610368
17.865025 -9.5550699 -0.4703722
25.295889 -13.529451 0.66602105
11.895213 -6.3567901 -1.2582939
15.320697 -8.1873646 -0.8070485
21.367468 -11.418754 -0
25.269178 -13.492486 1.3308566
10.642081 -5.6823425 -1.4108045
13.384981 -7.146915 -1.0610368
17.874815 -9.5362463 -0.47036675
25.321655 -13.509149 0.66632658
11.897693 -6.3474407 -1.258087
15.324825 -8.1758223 -0.80696511
21.377104 -11.39514 -0
25.289404 -13.480605 1.3314258
10.662001 -5.6834164 -1.4129188
13.390877 -7.1320519 -1.0609115
17.881054 -9.5235443 -0.47035587
25.334044 -13.493047 0.6664046
11.90399 -6.334795 -1.2580507
15.332552 -8.1593294 -0.8069216
21.383709 -11.379498 -0
25.323439 -13.476052 1.3327221
10.67312 -5.6749988 -1.4136039
10.373549 -5.5157146 -0.82155412
17.888491 -9.5114803 -0.47037673
25.383579 -13.485326 0.66733575
11.906142 -6.3252788 -1.2578112
15.337211 -8.1480742 -0.80686724
21.39344 -11.355945 -0
25.399231 -13.482275 1.3359671
10.678415 -5.6682553 -1.4137808
10.370824 -5.5049815 -0.82103372
17.897339 -9.492157 -0.4703477
25.441217 -13.493181 0.66860324
11.907738 -6.3154707 -1.2575136
15.345149 -8.1316977 -0.80683643
21.401606 -11.341134 -0
25.555307 -13.542263 1.343679
10.681684 -5.6604357 -1.4136901
10.374689 -5.4931154 -0.82088381
17.904858 -9.480135 -0.47037128
25.543955 -13.524829 0.6710549
10.417097 -5.5109148 -1.0994849
15.351201 -8.1211843 -0.80685633
21.408033 -11.325405 -0
25.658237 -13.562412 1.3483434
10.686611 -5.6487212 -1.4135585
10.375834 -5.4844508 -0.82067126
17.910954 -9.4673586 -0.47035769
25.619535 -13.530516 0.67266786
10.44309 -5.5153379 -1.1018218
15.357799 -8.1109571 -0.80690527
21.418983 -11.302506 -0
25.70573 -13.564565 1.3503412
10.689076 -5.6404805 -1.4133635
10.384433 -5.4750905 -0.82089746
17.920961 -9.4486523 -0.4703604
25.684868 -13.542096 0.67413485
11.155947 -5.8818641 -1.1765997
15.366008 -8.0947237 -0.80689079
21.423931 -11.286003 -0
25.766737 -13.573768 1.3530477
10.691887 -5.6276574 -1.412955
10.383735 -5.4654617 -0.82054049
17.927761 -9.4362478 -0.47036585
25.728415 -13.530643 0.67490554
11.419244 -6.0054111 -1.2037053
15.374073 -8.0852661 -0.80701768
21.430664 -11.270443 -0
25.812059 -13.563131 1.3546811
10.687571 -5.6158605 -1.4118662
10.390066 -5.4595346 -0.82073939
17.937218 -9.4172506 -0.47035497
25.785191 -13.537528 0.67614675
10.456777 -5.4899311 -1.1018472
10.225089 -5.3682923 -0.53653973
21.440413 -11.246924 -0
25.868275 -13.569633 1.3571339
10.687263 -5.6061807 -1.4113082
10.391567 -5.446444 -0.82040697
17.94244 -9.4040194 -0.4703196
25.836763 -13.541605 0.6772511
10.417935 -5.4556298 -1.0971518
10.181689 -5.331913 -0.5339691
21.447741 -11.231682 -0
25.928141 -13.577963 1.3597771
10.658407 -5.5768194 -1.4067256
10.39181 -5.4373274 -0.8201263
17.947582 -9.390748 -0.47028244
25.893429 -13.536758 0.67836446
10.300346 -5.3848915 -1.0843718
10.147474 -5.3049717 -0.5319804
21.460287 -11.209631 -0
25.991665 -13.576565 1.3623621
10.642558 -5.5590663 -1.4041213
9.9481478 -5.1963453 -0.78482574
17.954912 -9.3706474 -0.47021714
25.941509 -13.538843 0.6793763
10.211007 -5.3291121 -1.0745746
10.106696 -5.2701845 -0.529553
21.467728 -11.194448 -0
26.118809 -13.619777 1.3685277
10.617918 -5.5367632 -1.40036
9.8931417 -5.1544337 -0.78005993
17.959166 -9.3569193 -0.4701573
25.991823 -13.542021 0.68044621
10.158727 -5.2882991 -1.0684894
10.085072 -5.2499566 -0.52822781
21.4772 -11.180324 -0
26.172487 -13.612926 1.3705926
10.642814 -5.5355773 -1.4028782
9.8468866 -5.1215973 -0.77613068
17.963511 -9.3432436 -0.47010019
26.029484 -13.527004 0.68106091
8.7116184 -4.5272551 -0.91595078
10.064706 -5.2304273 -0.52696967
21.488342 -11.157538 -0
26.221046 -13.614933 1.3726374
10.662342 -5.5362811 -1.4049425
9.8465366 -5.1083217 -0.77568108
17.972036 -9.3237801 -0.47006756
26.162777 -13.573086 0.68430048
8.7120152 -4.5197392 -0.9156605
10.044022 -5.206327 -0.52560097
21.496992 -11.142983 -0
26.244576 -13.603897 1.3733716
10.705721 -5.544579 -1.4098926
9.8479214 -5.1003175 -0.77550942
17.978298 -9.3111048 -0.47006121
26.245651 -13.581217 0.68609565
8.7100773 -4.5071635 -0.91496015
10.033653 -5.1920686 -0.52486861
21.503309 -11.127219 -0
26.270247 -13.58232 1.3739699
8.7304459 -4.5138412 -1.1493429
9.8001108 -5.0668826 -0.77146572
17.988665 -9.2925959 -0.47007751
26.293638 -13.582785 0.68710208
8.7123232 -4.5006175 -0.91486579
15.414207 -7.9626813 -0.80603874
21.515436 -11.104945 -0
26.292204 -13.570419 1.3746225
8.7512474 -4.5168557 -1.1516659
9.678031 -4.9909272 -0.76144367
17.995703 -9.2803211 -0.47009203
26.32394 -13.575165 0.68764609
8.7118454 -4.4888196 -0.91432154
15.421357 -7.9459276 -0.80597711
21.521238 -11.088921 -0
26.283461 -13.542678 1.3736708
8.7618713 -4.510726 -1.1524417
9.601862 -4.9431643 -0.75517923
18.002697 -9.2680244 -0.47010562
26.397524 -13.578136 0.68919647
8.7141809 -4.482327 -0.9142381
15.428914 -7.9361944 -0.80608225
21.532597 -11.066253 -0
26.344378 -13.539172 1.3761127
8.7796497 -4.5121274 -1.1543655
9.526186 -4.8957949 -0.74895835
18.012184 -9.2490597 -0.47010019
26.46067 -13.587264 0.6905973
8.7260275 -4.4807196 -0.91515249
15.436314 -7.91957 -0.8060351
21.539066 -11.050575 -0
26.384651 -13.536593 1.3777225
8.7986288 -4.5102401 -1.1562394
9.3959293 -4.8164206 -0.73832053
18.018221 -9.236269 -0.47008932
26.508204 -13.588295 0.69159013
8.8993702 -4.5579591 -0.93283099
15.442568 -7.9091649 -0.80607319
21.546776 -11.035535 -0
9.2069473 -4.7114334 -1.2094646
9.2519646 -4.7344699 -0.72674799
18.023308 -9.2229939 -0.47005394
26.585527 -13.592794 0.6932357
8.8848896 -4.5427151 -0.93098038
15.446974 -7.8978138 -0.80601519
21.55658 -11.012077 -0
9.2021837 -4.700892 -1.2084074
9.1977749 -4.694592 -0.72210485
18.032017 -9.2036352 -0.47002947
26.63101 -13.592606 0.69417411
8.8069267 -4.495101 -0.92248225
15.456557 -7.8823071 -0.8060841
21.565203 -10.997504 -0
9.2146378 -4.6950927 -1.2093965
9.1811905 -4.6780505 -0.72054625
18.036873 -9.1902466 -0.46998867
26.707352 -13.596335 0.6957925
8.6763487 -4.4170065 -0.90831983
15.4607 -7.8708239 -0.80601335
21.570786 -10.981382 -0
8.7711878 -4.4614334 -1.1507857
9.1769514 -4.6678238 -0.71995765
18.044781 -9.1704865 -0.46994424
26.749214 -13.594141 0.69663572
8.6306801 -4.3861732 -0.90321803
15.470499 -7.8554244 -0.80609494
21.582273 -10.958788 -0
8.5059204 -4.3190341 -1.1155866
9.162652 -4.6484795 -0.71845353
18.049437 -9.1570034 -0.46989891
26.797878 -13.595341 0.69765574
8.6346092 -4.3767986 -0.90314907
15.475249 -7.8442516 -0.80605686
21.587515 -10.942499 -0
8.5108194 -4.310317 -1.1156366
13.521978 -6.8482261 -1.0598979
18.056627 -9.1448059 -0.46991977
26.852869 -13.5879 0.69871652
8.6399536 -4.3719287 -0.90338856
15.480825 -7.8334985 -0.80606234
21.59823 -10.919517 -0
8.4968948 -4.2958145 -1.1134179
13.524565 -6.8376765 -1.0597262
18.064415 -9.1249943 -0.46987352
26.870714 -13.573376 0.69893414
8.6428299 -4.365808 -0.90337044
15.487593 -7.8165622 -0.80598801
21.604593 -10.903802 -0
8.4984446 -4.285429 -1.1130322
13.530396 -6.8228431 -1.0596226
18.073013 -9.1135054 -0.46993154
26.901628 -13.565427 0.69949174
12.061215 -6.0767136 -1.2600029
15.492766 -7.8056073 -0.80597347
21.612061 -10.888646 -0
27.280363 -13.732528 1.418945
10.786552 -5.4297895 -1.4122064
13.532719 -6.8121691 -1.0594319
18.082199 -9.0943995 -0.46992248
26.921053 -13.53988 0.69962776
12.064135 -6.0676279 -1.259865
15.496504 -7.7939301 -0.80588466
21.623661 -10.866114 -0
27.277426 -13.70719 1.4182942
10.789681 -5.421927 -1.4121202
13.538104 -6.7971196 -1.0592957
18.088787 -9.0818958 -0.46992883
26.942539 -13.527127 0.69994056
12.06802 -6.0590296 -1.2598287
15.504658 -7.777698 -0.80588466
21.630962 -10.850875 -0
27.320995 -13.705201 1.4200617
10.797296 -5.4115982 -1.4123744
10.628614 -5.3270555 -0.83135003
18.09268 -9.0680399 -0.46986535
26.978165 -13.50966 0.70049816
8.2528315 -4.1327105 -0.8610937
10.639751 -5.327991 -0.55282825
21.639231 -10.836121 -0
27.324863 -13.671346 1.4195179
8.2194691 -4.1124158 -1.0747977
10.634178 -5.3205581 -0.83149445
18.101746 -9.0488796 -0.46985447
26.989161 -13.491608 0.70053893
8.2557144 -4.1269479 -0.8610937
10.64372 -5.3160443 -0.55274487
21.648155 -10.812249 -0
27.330736 -13.650435 1.4193275
8.2178259 -4.104423 -1.0742079
10.635281 -5.3071918 -0.83114564
18.104321 -9.0343742 -0.46975747
26.968174 -13.457592 0.69975013
8.6904573 -4.3329029 -0.90596491
10.651758 -5.310771 -0.55296963
21.654999 -10.796785 -0
27.341829 -13.632134 1.4194092
8.2214251 -4.095469 -1.0741172
10.648157 -5.3043356 -0.83186227
18.109644 -9.021245 -0.46973208
26.959702 -13.41812 0.69916534
8.997941 -4.4783678 -0.9376933
15.534081 -7.7314715 -0.80614752
21.664299 -10.77311 -0
27.380095 -13.615431 1.4206545
8.2298756 -4.0925097 -1.0748477
10.646415 -5.2941937 -0.83143723
18.118172 -9.0018234 -0.4697085
26.966965 -13.398253 0.69911093
8.9966764 -4.4699044 -0.93723607
15.539582 -7.7139163 -0.80601335
21.670662 -10.75741 -0
27.411192 -13.607035 1.4217749
8.2310629 -4.082355 -1.0744438
13.554787 -6.7227588 -1.0580177
18.123613 -8.9887562 -0.46968675
26.973688 -13.378122 0.69904292
8.9951487 -4.4574065 -0.93659019
15.543845 -7.7025113 -0.80595535
21.67659 -10.741498 -0
10.817459 -5.3557215 -1.4115713
13.562096 -6.714591 -1.0582221
18.133436 -8.9699802 -0.46969762
26.999758 -13.355842 0.69935572
8.9909382 -4.4475045 -0.93582821
15.547295 -7.6907063 -0.80585563
21.687511 -10.718637 -0
10.820326 -5.3477383 -1.4114579
13.570518 -6.7010751 -1.058331
18.139694 -8.9573183 -0.46969762
26.988592 -13.326874 0.69882536
8.9912157 -4.4398317 -0.9355343
15.5545 -7.6740065 -0.80581212
21.692783 -10.702405 -0
10.824806 -5.3358555 -1.4113127
13.576451 -6.6922197 -1.0584291
18.146048 -8.9447041 -0.46970034
27.021452 -13.307921 0.69931495
8.9886723 -4.4268737 -0.9347868
15.558699 -7.6625767 -0.80575234
21.698462 -10.686378 -0
8.0395012 -3.9559255 -1.0478109
13.582414 -6.6833763 -1.05853
18.155895 -8.9259377 -0.46971303
26.986052 -13.267086 0.69815892
8.9883051 -4.4188986 -0.93442756
15.565874 -7.6458664 -0.80570883
21.706169 -10.661944 -0
8.0398932 -3.9491487 -1.0475024
13.589825 -6.6693554 -1.0585626
18.160439 -8.9124346 -0.46966952
27.025808 -13.263211 0.69894773
8.5014076 -4.1684771 -0.88335514
15.570577 -7.6346884 -0.80567616
21.712976 -10.646479 -0
8.0435362 -3.9404883 -1.0474389
13.593428 -6.6593518 -1.0584809
18.167604 -8.900218 -0.46969399
27.004957 -13.217906 0.69805014
8.0562582 -3.943234 -0.83681482
15.574992 -7.6233702 -0.80562901
21.722183 -10.622791 -0
8.0411272 -3.9323492 -1.0467674
13.597163 -6.649415 -1.05841
18.174213 -8.8798685 -0.46962419
27.040495 -13.211907 0.69873011
8.0590096 -3.9376087 -0.83681482
15.581143 -7.6061659 -0.80553478
21.728752 -10.607212 -0
28.31768 -13.823695 1.4640054
8.0426607 -3.9226677 -1.0464315
13.602193 -6.634233 -1.0582602
18.182056 -8.8679829 -0.46966681
27.019175 -13.178133 0.69794136
10.743274 -5.2352037 -1.1149681
15.585292 -7.5947223 -0.80547494
21.737627 -10.592759 -0
28.373083 -13.813967 1.466121
10.857764 -5.2863059 -1.4122247
13.605279 -6.6239848 -1.0581403
18.189226 -8.8479128 -0.46961239
27.048763 -13.157518 0.69834936
10.750948 -5.2296586 -1.1153854
15.58852 -7.5828328 -0.80536801
21.748602 -10.569938 -0
28.353346 -13.77988 1.4646035
10.860545 -5.2782836 -1.4121066
13.61042 -6.6088657 -1.0580014
18.196032 -8.8355188 -0.46962872
27.082182 -13.150402 0.69897497
10.773565 -5.226716 -1.1171634
15.594872 -7.5657377 -0.80528641
21.756117 -10.55482 -0
28.370859 -13.763914 1.4650115
10.867846 -5.2677703 -1.412338
13.613769 -6.5987506 -1.0579033
18.198927 -8.821229 -0.46954441
27.072741 -13.1108 0.69837654
10.778996 -5.220058 -1.1173484
15.59843 -7.5540152 -0.8051976
21.764078 -10.539919 -0
28.373665 -13.728588 1.4644132
10.869776 -5.2593369 -1.4121112
13.616934 -6.5885487 -1.0577915
18.208296 -8.8022346 -0.46954802
27.098763 -13.100055 0.69881177
7.7792616 -3.7606423 -0.80612421
15.605594 -7.5373201 -0.80515951
21.776405 -10.51775 -0
28.392202 -13.713103 1.4648755
10.874842 -5.2524223 -1.4122927
13.623195 -6.5739808 -1.0577425
18.210533 -8.7876368 -0.46944737
27.108957 -13.081642 0.69883895
7.7759781 -3.7490141 -0.80537671
15.609516 -7.5257797 -0.80509061
21.782652 -10.502019 -0
28.450737 -13.70465 1.4671543
7.8642077 -3.7881694 -1.0207922
13.626307 -6.5637579 -1.057628
18.216347 -8.7747688 -0.46943924
27.11937 -13.051672 0.69875461
7.7680449 -3.7385077 -0.80428451
15.615083 -7.5150328 -0.80510694
21.796066 -10.480371 -0
28.496765 -13.702319 1.4690342
7.8668504 -3.7826781 -1.0207922
13.633418 -6.549603 -1.0576471
18.22373 -8.7548256 -0.46939299
27.12594 -13.031518 0.69868934
7.7556829 -3.7258923 -0.80273509
15.622135 -7.4982882 -0.80506527
21.800032 -10.463546 -0
28.732731 -13.791091 1.4807017
8.1855888 -3.9253914 -1.0616174
13.636758 -6.539494 -1.0575517
18.229485 -8.7419319 -0.46938393
27.128693 -13.009538 0.69852614
7.7492332 -3.7128108 -0.80166465
15.627225 -7.4873123 -0.805058
21.809093 -10.449167 -0
8.1785994 -3.9150188 -1.060356
13.641917 -6.5302582 -1.0575981
18.238031 -8.7225504 -0.46936852
27.141138 -12.980566 0.69849622
7.7350869 -3.6993954 -0.79993379
15.632483 -7.4764175 -0.80505979
21.815195 -10.424016 -0
8.1850061 -3.9110644 -1.0608325
10.850946 -5.1802864 -0.84080529
18.244503 -8.710001 -0.46937847
27.134441 -12.954094 0.69809091
7.7337613 -3.6888151 -0.79939681
10.831891 -5.1665473 -0.55755436
21.823208 -10.409137 -0
8.1726704 -3.8946631 -1.0587045
10.855756 -5.1732798 -0.84089792
18.250368 -8.6971617 -0.46937305
27.142597 -12.923103 0.69795221
7.7294164 -3.6801214 -0.79868197
10.834157 -5.1583467 -0.55748546
21.828001 -10.392723 -0
8.1706924 -3.8867233 -1.0580965
10.856057 -5.1641264 -0.8406418
18.259043 -8.677844 -0.46936217
27.162193 -12.90918 0.69822425
7.7322297 -3.6748412 -0.79870737
10.848823 -5.1514001 -0.55796224
21.839613 -10.370212 -0
7.8578348 -3.7311747 -1.0172442
10.871529 -5.1575317 -0.84142113
18.263861 -8.6645088 -0.46933043
27.146959 -12.878715 0.69760132
12.121261 -5.7452316 -1.251454
15.659015 -7.4220552 -0.80508697
21.844658 -10.353925 -0
29.281694 -13.866413 1.5052296
7.6002574 -3.5991192 -0.98341078
10.872415 -5.1486568 -0.84121132
18.268812 -8.6512375 -0.46930233
27.165621 -12.852735 0.69773459
12.124952 -5.736618 -1.2514213
15.660066 -7.4091687 -0.8048749
21.857502 -10.331995 -0
29.386547 -13.890959 1.5101207
7.5988045 -3.5919387 -0.98289806
13.670496 -6.4561772 -1.0571784
18.275673 -8.6310682 -0.46924609
27.181473 -12.837018 0.69791144
12.132752 -5.7299457 -1.2518132
15.666863 -7.3923159 -0.80482596
21.861389 -10.315166 -0
29.393133 -13.868975 1.5099612
7.6015439 -3.5834994 -0.98276651
13.675634 -6.4469309 -1.0572275
18.280493 -8.6177406 -0.46921527
27.197845 -12.821536 0.69810182
12.139626 -5.7176514 -1.2519039
15.670397 -7.3806119 -0.80474257
21.867878 -10.299568 -0
29.415054 -13.841675 1.5103419
7.6036925 -3.5780265 -0.98272109
13.678686 -6.4367018 -1.0571158
18.288765 -8.5982437 -0.46919623
27.210728 -12.792798 0.69808823
12.147943 -5.7112103 -1.2523502
15.673744 -7.3688235 -0.80465013
21.875895 -10.275368 -0
29.415705 -13.816906 1.5098796
7.6095252 -3.5742843 -0.98315215
13.685843 -6.4225726 -1.0571485
18.294338 -8.5852747 -0.46918535
27.198441 -12.763844 0.69754422
12.156488 -5.6996913 -1.2526151
15.680286 -7.3518591 -0.80459028
21.880198 -10.258749 -0
29.427994 -13.797609 1.5100156
7.6188502 -3.5689306 -0.98387355
13.689617 -6.4126859 -1.057094
18.300858 -8.5727491 -0.46919894
27.228239 -12.743052 0.6979658
12.163213 -5.6924891 -1.2528981
15.68591 -7.3411422 -0.80461568
21.88838 -10.23464 -0
29.470951 -13.780123 1.5114785
7.6332545 -3.5691817 -0.98541164
13.694338 -6.4032426 -1.0571131
18.308764 -8.5530844 -0.46917176
27.220676 -12.716354 0.69754422
12.169192 -5.6849346 -1.2531049
15.692635 -7.3242664 -0.80456668
21.89361 -10.218464 -0
29.485409 -13.761806 1.511727
7.6502643 -3.5706286 -0.98728549
13.700683 -6.3887339 -1.0570858
18.314554 -8.5402174 -0.46916723
27.241226 -12.702794 0.69784343
12.177149 -5.6731238 -1.2533118
15.698628 -7.3137207 -0.80461204
21.898401 -10.202088 -0
7.6766515 -3.5731592 -0.99020737
13.705599 -6.3793812 -1.0571212
18.320192 -8.5272808 -0.46915907
27.247078 -12.670802 0.697653
12.182376 -5.6652117 -1.2534424
15.703483 -7.3026443 -0.80459934
21.907549 -10.178443 -0
7.7018743 -3.5783596 -0.99313837
13.711636 -6.3647299 -1.0570722
18.32674 -8.5069904 -0.46909833
27.270264 -12.658436 0.69802022
12.187668 -5.6573277 -1.2535803
15.711015 -7.2861462 -0.80459392
21.91518 -10.163393 -0
7.7323012 -3.5826559 -0.9965775
13.716146 -6.3551884 -1.0570776
18.332462 -8.4940948 -0.46909288
27.247356 -12.613138 0.69709539
12.196233 -5.6457872 -1.2538525
15.716133 -7.2751927 -0.80459571
21.921137 -10.147565 -0
7.7598376 -3.5888364 -0.99980342
13.72058 -6.3456116 -1.0570776
18.33968 -8.474123 -0.46905026
27.26679 -12.599028 0.69736743
12.201407 -5.6378422 -1.2539794
15.720996 -7.2641206 -0.80458486
21.932922 -10.125144 -0
7.7890778 -3.5957606 -1.0032471
13.72704 -6.3311582 -1.0570639
18.344635 -8.4608755 -0.46902579
27.265472 -12.575327 0.69710898
12.209636 -5.6261363 -1.2542189
15.728134 -7.2474413 -0.80456126
21.940374 -10.110009 -0
7.8249803 -3.6023989 -1.007385
13.731669 -6.321671 -1.0570804
18.348833 -8.4472828 -0.46898225
27.253614 -12.535263 0.69646978
12.215257 -5.618391 -1.2543931
15.73436 -7.2369976 -0.8046211
21.95159 -10.087321 -0
30.413279 -13.975687 1.5550197
7.8474121 -3.6060884 -1.0099485
13.735938 -6.3120179 -1.0570694
18.358061 -8.4282427 -0.46899223
27.292704 -12.530165 0.697245
12.219 -5.6097808 -1.254375
15.742284 -7.2206793 -0.80463922
21.957987 -10.071701 -0
30.447395 -13.965627 1.5562651
7.9020801 -3.621192 -1.0164956
13.742328 -6.297533 -1.0570531
18.362165 -8.4146109 -0.4689469
27.299314 -12.510132 0.69719058
12.225433 -5.5972409 -1.254433
15.74867 -7.2103043 -0.80470812
21.965475 -10.056581 -0
30.45998 -13.93281 1.5561618
7.9634924 -3.6426098 -1.024068
13.745693 -6.2874675 -1.0569741
18.367182 -8.4013996 -0.46892515
27.329981 -12.489572 0.69763941
12.227427 -5.5878315 -1.2542371
15.753415 -7.1991782 -0.80469358
21.976385 -10.033751 -0
30.474491 -13.913729 1.5564065
8.0327024 -3.6674886 -1.0326387
13.751844 -6.2728753 -1.0569414
18.375935 -8.3821449 -0.46892422
27.324305 -12.463924 0.69727224
12.231326 -5.5792937 -1.2542371
15.760164 -7.1823215 -0.8046537
21.983953 -10.018665 -0
30.482599 -13.891723 1.556325
8.0690947 -3.6738977 -1.036822
13.755227 -6.2628212 -1.0568651
18.379864 -8.3684397 -0.46887529
27.320812 -12.427785 0.6968506
12.235392 -5.5656772 -1.2540556
15.763825 -7.1707029 -0.80458486
21.991653 -10.003639 -0
30.483276 -13.853498 1.5556179
10.85652 -4.9338779 -1.3945434
13.759028 -6.2529588 -1.0568215
18.387548 -8.3487034 -0.46884808
27.328949 -12.408466 0.69683701
12.240549 -5.5577126 -1.2541863
15.765985 -7.1584053 -0.80443978
22.002758 -9.9808941 -0
30.520552 -13.844737 1.5570265
10.859572 -4.9261212 -1.3944935
11.13621 -5.0469232 -0.85495824
18.391987 -8.3352356 -0.4688127
27.33707 -12.389142 0.69682342
12.244733 -5.5441532 -1.2540194
15.772833 -7.141602 -0.80440718
22.01004 -9.9656763 -0
30.558575 -13.83627 1.5584732
10.86271 -4.9138346 -1.3942349
11.134015 -5.036562 -0.85451955
18.397587 -8.3222971 -0.46880728
27.369247 -12.369193 0.69731301
12.249805 -5.5361481 -1.2541428
11.095077 -5.0142827 -0.56566507
22.018791 -9.9418659 -0
35.321819 -15.948415 1.8005437
10.866138 -4.90625 -1.3942349
11.139979 -5.0298939 -0.85470754
18.404406 -8.3021755 -0.46875921
27.386419 -12.353936 0.69753063
12.252143 -5.526907 -1.2539867
11.100321 -5.0026612 -0.56566507
22.025833 -9.9265394 -0
35.359627 -15.935776 1.8019034
10.870103 -4.8943424 -1.3940852
11.139804 -5.0157776 -0.85429066
18.411551 -8.2899342 -0.46879366
27.390764 -12.332891 0.69742179
12.258492 -5.514329 -1.2540448
15.791908 -7.1037927 -0.80449235
22.032116 -9.9108725 -0
10.873092 -4.8865619 -1.3940307
11.141419 -5.007153 -0.85414624
18.416906 -8.276886 -0.46878278
27.399923 -12.302521 0.6973266
12.260706 -5.5050368 -1.2538779
15.797825 -7.0931973 -0.80454135
22.040771 -9.8870268 -0
35.238922 -15.80744 1.7943437
10.875829 -4.8786678 -1.3939445
13.797092 -6.1833014 -1.0572438
18.426418 -8.2579794 -0.46880457
27.39728 -12.278358 0.69704103
12.265221 -5.496778 -1.2539468
15.805387 -7.076714 -0.80454856
22.048595 -9.8720522 -0
35.157532 -15.741456 1.7896394
10.879869 -4.8668008 -1.3938084
13.801014 -6.1734924 -1.0572139
18.432749 -8.245368 -0.46881905
27.401031 -12.245598 0.69680983
12.269762 -5.4833913 -1.2538234
15.810039 -7.0655508 -0.80453408
22.054876 -9.8563862 -0
31.476643 -14.053821 1.6015195
10.88252 -4.8588719 -1.3937131
13.805819 -6.1640787 -1.057252
18.442123 -8.2263947 -0.4688381
27.424017 -12.232908 0.69717699
12.273517 -5.4747925 -1.2538161
15.818177 -7.049324 -0.80457217
22.065401 -9.8333807 -0
31.504517 -14.039895 1.6024386
10.883712 -4.8502941 -1.3934318
13.812231 -6.1496019 -1.0572493
18.445934 -8.2126598 -0.46878913
27.440042 -12.217095 0.69736743
12.278177 -5.4614625 -1.2537073
15.822988 -7.0382318 -0.80456668
22.07276 -9.8181963 -0
31.501583 -14.012236 1.6017914
10.888467 -4.8387523 -1.393391
13.816307 -6.1398625 -1.057233
18.450558 -8.1992893 -0.46876103
27.442114 -12.183599 0.69709539
12.28188 -5.4528418 -1.2536964
15.82886 -7.0276108 -0.80461568
22.084637 -9.7957888 -0
31.523195 -13.982326 1.6021448
10.889607 -4.8301587 -1.3931051
13.82027 -6.1300735 -1.0572084
